ply
format ascii 1.0
element vertex 685
property float x
property float y
property float z
property uchar red
property uchar green
property uchar blue
end_header
0.6485862731933594 -0.24043206870555878 0.1660439372062683 131 112 82
0.6395509243011475 -0.26047515869140625 0.13982389867305756 108 93 74
0.6859379410743713 -0.28594911098480225 0.1391756236553192 96 104 106
0.6542809009552002 -0.17065387964248657 0.1394919604063034 96 77 47
0.6490060687065125 -0.21615707874298096 0.15989616513252258 102 83 51
0.7756605744361877 0.00829988718032837 -0.04135388135910034 90 89 84
0.6565688252449036 -0.23078840970993042 0.16903774440288544 136 112 84
0.6495158076286316 -0.18545614182949066 0.14287027716636658 100 79 48
0.7851810455322266 0.0335240364074707 -0.05042356252670288 93 94 88
0.6398091316223145 -0.21109792590141296 0.14432819187641144 99 78 47
0.6471127271652222 -0.22084173560142517 0.1594032496213913 100 81 49
0.65974360704422 -0.2020040601491928 0.16985473036766052 136 112 86
0.7700276374816895 0.036773085594177246 -0.04412320256233215 94 95 89
0.6769695281982422 -0.2701674699783325 0.16772659122943878 101 109 111
0.6551963686943054 -0.21023549139499664 0.16875086724758148 135 114 85
0.6494382619857788 -0.17782656848430634 0.14025025069713593 99 80 50
0.638954758644104 -0.20529094338417053 0.1438482254743576 94 75 43
0.6443881392478943 -0.23128406703472137 0.1598685085773468 100 81 51
0.6673529744148254 -0.27554476261138916 0.15990175306797028 99 107 109
0.7737839221954346 0.026426196098327637 -0.046318769454956055 93 94 88
0.6508673429489136 -0.2401609867811203 0.15098917484283447 102 81 50
0.6392481327056885 -0.2521677613258362 0.13878017663955688 111 89 65
0.6599352955818176 -0.16919632256031036 0.14605554938316345 99 78 47
0.6398457288742065 -0.19923579692840576 0.142772376537323 98 77 46
0.6500827670097351 -0.21946784853935242 0.13552558422088623 98 77 48
0.6489762663841248 -0.23982852697372437 0.14025813341140747 96 75 48
0.7828550934791565 0.07681375741958618 -0.04997450113296509 93 94 88
0.7366687059402466 0.07621645927429199 -0.024473905563354492 98 95 88
0.7569970488548279 0.2978813052177429 -0.08173307776451111 100 99 95
0.6644676327705383 -0.2766968011856079 0.1497279852628708 99 103 106
0.6520668864250183 -0.24023878574371338 0.14901264011859894 97 76 47
0.7967222929000854 0.016424983739852905 -0.05000939965248108 86 87 81
0.6772334575653076 -0.2831293046474457 0.1399802416563034 101 106 109
0.7359297275543213 0.24252325296401978 -0.05176359415054321 100 99 94
0.6496045589447021 -0.22140902280807495 0.14902709424495697 95 76 46
0.7464224696159363 0.24114036560058594 -0.04840335249900818 105 102 95
0.6488743424415588 -0.269848495721817 0.13953110575675964 144 144 142
0.6710496544837952 -0.2791627049446106 0.1382099688053131 119 120 122
0.7872127294540405 0.09905573725700378 -0.04590868949890137 96 93 88
0.6491661071777344 -0.24139699339866638 0.1387844681739807 98 77 50
0.6897167563438416 -0.2803378403186798 0.16366970539093018 100 108 110
0.7920341491699219 0.03392446041107178 -0.05362343788146973 92 93 87
0.6491212844848633 -0.2109939008951187 0.14950312674045563 97 78 48
0.6524487733840942 -0.23077984154224396 0.13953955471515656 98 79 49
0.640574038028717 -0.25057563185691833 0.13970275223255157 111 90 63
0.7437238693237305 0.2512081265449524 -0.056751102209091187 100 99 94
0.650094211101532 -0.2693614363670349 0.143832266330719 144 146 143
0.6837344765663147 -0.2712334990501404 0.16920118033885956 101 109 111
0.694288432598114 -0.2850456237792969 0.15962858498096466 99 107 109
0.7986419200897217 0.026852786540985107 -0.05531066656112671 92 93 87
0.6478959918022156 -0.2081487476825714 0.14952847361564636 97 78 48
0.6500049233436584 -0.2251053750514984 0.1395900845527649 98 77 46
0.7934078574180603 0.05914789438247681 -0.05395504832267761 96 97 91
0.7877585291862488 0.0841636061668396 -0.05100414156913757 95 96 90
0.6576735973358154 -0.20381884276866913 0.14927951991558075 97 78 48
0.7448559403419495 0.24304360151290894 -0.05063125491142273 102 99 92
0.6481720805168152 -0.22084954380989075 0.13962799310684204 98 77 46
0.6699874997138977 -0.281244695186615 0.1323041319847107 142 144 143
0.742641806602478 0.07917287945747375 -0.02527439594268799 101 98 91
0.731407105922699 0.2303321361541748 -0.04254081845283508 103 100 93
0.6435508728027344 -0.262079119682312 0.14975573122501373 108 100 81
0.778694212436676 0.08983084559440613 -0.04551491141319275 98 97 92
0.7694926261901855 0.2920810580253601 -0.08085054159164429 97 96 92
0.6703311204910278 -0.2797066569328308 0.14664481580257416 98 102 105
0.6369900107383728 -0.19082963466644287 0.1393221765756607 99 78 47
0.6500751972198486 -0.2184271514415741 0.14850527048110962 94 75 45
0.6485618948936462 -0.23999398946762085 0.13879695534706116 97 76 49
0.7868051528930664 0.07616376876831055 -0.05162271857261658 95 96 90
0.7920928597450256 0.04373043775558472 -0.05299726128578186 95 96 90
0.6670414209365845 -0.27772238850593567 0.13934338092803955 139 140 142
0.7426998615264893 0.2834409475326538 -0.0726226270198822 97 96 92
0.6504559516906738 -0.24147352576255798 0.136738583445549 98 77 50
0.6797545552253723 -0.2821227014064789 0.14886966347694397 95 103 105
0.7721838355064392 0.07671719789505005 -0.04518118500709534 96 97 91
0.798219621181488 0.014605939388275146 -0.047879964113235474 91 92 86
0.6420872211456299 -0.2510342001914978 0.14879073202610016 111 91 64
0.6941289901733398 -0.2800379991531372 0.16567596793174744 100 108 110
0.6405871510505676 -0.20843037962913513 0.13883990049362183 99 78 49
0.7771170735359192 0.00653037428855896 -0.03928250074386597 89 90 84
0.6502671837806702 -0.22001305222511292 0.14701518416404724 95 74 45
0.7329414486885071 0.22846800088882446 -0.040358662605285645 104 101 94
0.7886947393417358 0.09221726655960083 -0.050367116928100586 99 98 93
0.6491138339042664 -0.246236190199852 0.14910396933555603 111 90 63
0.734372615814209 0.07732850313186646 -0.018964797258377075 106 99 93
0.686669111251831 -0.2808237671852112 0.15969930589199066 100 108 110
0.6939337849617004 -0.27842551469802856 0.1671910285949707 100 108 110
0.7300581932067871 0.2527170777320862 -0.05612516403198242 100 99 94
0.6469501852989197 -0.21801233291625977 0.1396532505750656 99 78 47
0.651140570640564 -0.2301841527223587 0.1480296403169632 96 75 46
0.6394628286361694 -0.18440452218055725 0.1376599818468094 98 77 48
0.7098140120506287 0.21199199557304382 -0.03235456347465515 102 99 92
0.6429522037506104 -0.25137507915496826 0.12936720252037048 113 92 65
0.669316291809082 0.05913060903549194 -0.04194939136505127 141 127 124
0.6698467135429382 -0.12092651426792145 0.04660061001777649 103 80 49
0.6662033200263977 0.13557320833206177 -0.031141191720962524 100 97 92
0.6985207200050354 0.18674996495246887 -0.006372421979904175 104 101 94
0.64258873462677 -0.19502189755439758 0.10958287119865417 99 78 47
0.6971559524536133 0.07812532782554626 -0.04381117224693298 137 120 113
0.6380677819252014 -0.23044396936893463 0.1083993911743164 98 79 49
0.6527890563011169 -0.22111211717128754 0.12987081706523895 97 78 48
0.7173407673835754 0.2459782361984253 -0.05175280570983887 99 98 94
0.6686245203018188 0.04999169707298279 -0.04634907841682434 93 88 82
0.6493690609931946 -0.24081099033355713 0.1288548856973648 96 77 47
0.6396308541297913 0.08426156640052795 -0.06074029207229614 92 87 81
0.629689633846283 -0.18874289095401764 0.12009978294372559 99 78 47
0.7298727035522461 0.23219621181488037 -0.04472297430038452 101 98 91
0.6562607884407043 -0.27086031436920166 0.008674383163452148 78 81 74
0.697374701499939 0.08752831816673279 -0.0411740243434906 141 126 119
0.6526979207992554 -0.2301265448331833 0.1294938623905182 96 77 47
0.6394850015640259 -0.25113293528556824 0.11926189064979553 109 89 62
0.6906060576438904 0.020473748445510864 -0.03793466091156006 89 90 82
0.6375399231910706 -0.2201070338487625 0.10863964259624481 98 77 48
0.6697198152542114 0.16406184434890747 -0.024544507265090942 91 92 86
0.7275831699371338 0.2567440867424011 -0.05831548571586609 101 100 96
0.6287767291069031 -0.24077019095420837 0.10058319568634033 96 75 44
0.635736882686615 0.09330308437347412 -0.06065976619720459 93 88 82
0.6390016078948975 -0.2183687686920166 0.10947540402412415 99 78 49
0.6631035804748535 0.11943715810775757 -0.031003743410110474 153 138 131
0.6664177775382996 -0.1055043488740921 0.04920193552970886 102 79 48
0.6512644290924072 -0.20637784898281097 0.12668073177337646 99 78 49
0.6403242349624634 -0.1878654807806015 0.1059383749961853 99 78 47
0.6913986802101135 0.018633246421813965 -0.03795105218887329 90 91 83
0.6731154918670654 0.1654176115989685 -0.012571483850479126 95 96 88
0.6793360114097595 0.03733941912651062 -0.04023537039756775 94 94 86
0.7227634787559509 0.22991949319839478 -0.043710947036743164 100 99 94
0.6659814715385437 0.1589677929878235 -0.021868228912353516 85 86 80
0.6408783793449402 -0.2601342499256134 0.12815940380096436 105 89 66
0.7233514189720154 0.0717846155166626 -0.015472471714019775 103 96 90
0.6499530076980591 -0.27166175842285156 0.019498378038406372 81 82 76
0.6701996326446533 -0.0672641396522522 0.040876030921936035 103 78 48
0.6293947696685791 -0.2507689893245697 0.10036976635456085 106 86 61
0.6517966389656067 -0.21072834730148315 0.12877574563026428 98 77 48
0.6396377682685852 -0.26123881340026855 0.11751043796539307 104 87 67
0.6464319825172424 -0.17071890830993652 0.10965085029602051 99 78 47
0.6685107350349426 -0.11036397516727448 0.04915863275527954 101 78 47
0.6796936392784119 0.17471307516098022 -0.01253974437713623 95 95 87
0.6681172847747803 0.06973278522491455 -0.04132571816444397 140 125 118
0.6589810252189636 -0.16675657033920288 0.10800427198410034 100 79 48
0.6589098572731018 -0.17260494828224182 0.11934956908226013 102 79 48
0.6948183178901672 0.009213775396347046 -0.03994983434677124 90 91 85
0.6498345732688904 -0.07866936922073364 0.09290602803230286 104 81 50
0.6824469566345215 0.17884144186973572 -0.009844809770584106 103 103 95
0.6788346171379089 -0.2856283187866211 0.12989000976085663 96 101 104
0.6703374981880188 -0.07291167974472046 0.04180765151977539 101 78 47
0.6767749190330505 0.0876929759979248 -0.03128644824028015 144 129 122
0.7096776366233826 0.06746363639831543 -0.020071566104888916 107 100 92
0.6399086713790894 0.10491782426834106 -0.06107020378112793 96 93 86
0.680660605430603 -0.286920428276062 0.10423685610294342 125 125 127
0.6702404618263245 0.13837707042694092 -0.035904139280319214 98 95 90
0.6726965308189392 -0.12008319795131683 0.049072086811065674 101 78 47
0.6466200947761536 -0.16929462552070618 0.10590727627277374 100 79 48
0.6531892418861389 -0.0701679140329361 0.09968309104442596 105 81 57
0.6723295450210571 0.05847281217575073 -0.04334089159965515 125 114 110
0.6384896039962769 -0.2011476457118988 0.11873579025268555 98 77 46
0.6874070167541504 0.034482985734939575 -0.03922384977340698 93 93 85
0.6494495868682861 -0.1760418862104416 0.11794842779636383 100 79 48
0.7197753190994263 0.24201703071594238 -0.04959830641746521 97 96 91
0.6895496249198914 0.07885134220123291 -0.0448324978351593 138 123 116
0.6789514422416687 0.172886461019516 -0.02811223268508911 95 96 90
0.689069926738739 0.18300211429595947 -0.006437510251998901 107 104 97
0.6469212174415588 -0.21957550942897797 0.12005999684333801 97 76 45
0.7064085006713867 0.06559675931930542 -0.011436551809310913 101 94 86
0.664215087890625 -0.0822412520647049 0.0499519407749176 103 80 49
0.6383602023124695 -0.18356932699680328 0.12961138784885406 99 78 47
0.659812867641449 -0.16954727470874786 0.11337541043758392 100 79 48
0.6543739438056946 -0.06794831156730652 0.09894390404224396 103 83 59
0.6866428256034851 0.029676169157028198 -0.037852704524993896 91 91 83
0.7151468992233276 0.23570650815963745 -0.04638758301734924 97 98 92
0.6620853543281555 -0.0903487354516983 0.04839769005775452 101 78 47
0.639862060546875 -0.21751731634140015 0.11899435520172119 100 79 48
0.7141886353492737 0.0692647397518158 -0.0041657984256744385 117 110 102
0.6550309062004089 -0.27441534399986267 0.019183337688446045 82 85 78
0.679405689239502 0.04860740900039673 -0.04486382007598877 95 95 87
0.686588704586029 0.08877235651016235 -0.04080131649971008 143 128 121
0.7296883463859558 0.246529221534729 -0.05228570103645325 100 99 94
0.6732106804847717 0.16616466641426086 -0.021929949522018433 95 96 90
0.6664220690727234 0.1584431529045105 -0.010609656572341919 96 97 91
0.6466111540794373 -0.20676743984222412 0.129998579621315 98 77 48
0.7245009541511536 0.07024979591369629 -0.024978667497634888 99 99 91
0.6354954838752747 -0.19018341600894928 0.1298495978116989 99 78 47
0.6498472690582275 -0.23789115250110626 0.12827475368976593 98 79 49
0.6824192404747009 0.01895594596862793 -0.035747021436691284 88 89 81
0.7194799184799194 0.25634944438934326 -0.05715307593345642 97 98 93
0.6627903580665588 -0.062061458826065063 0.04902166128158569 104 82 59
0.6603360176086426 -0.2790168821811676 0.1288059502840042 141 141 139
0.6394199132919312 -0.22050173580646515 0.11959865689277649 99 78 47
0.719682514667511 0.07004281878471375 -0.018151521682739258 91 86 80
0.6398141384124756 -0.2548418641090393 0.10993659496307373 110 90 63
0.6597229242324829 -0.09158329665660858 0.09860236942768097 103 80 49
0.715754508972168 0.2276684045791626 -0.04270678758621216 99 98 93
0.6696485280990601 0.030549973249435425 -0.04052329063415527 95 95 87
0.6747573614120483 0.06871941685676575 -0.042212873697280884 135 120 113
0.6504315733909607 -0.19887885451316833 0.10380910336971283 99 78 47
0.673762857913971 -0.11615712940692902 0.04985851049423218 102 79 47
0.6858024597167969 0.00963670015335083 -0.03772449493408203 90 91 85
0.6549449563026428 -0.08048906922340393 0.09870117902755737 103 78 48
0.6496290564537048 -0.22069266438484192 0.12091986835002899 98 77 46
0.6652868986129761 0.08370146155357361 -0.03162693977355957 145 130 123
0.6663458347320557 -0.07031707465648651 0.04894813895225525 103 79 51
0.6680120229721069 -0.2829650938510895 0.12994717061519623 136 140 139
0.6396000981330872 -0.23096799850463867 0.11780250072479248 98 79 47
0.6386644840240479 -0.2412348836660385 0.10160905122756958 99 78 47
0.6612221002578735 0.028706759214401245 -0.040165096521377563 95 94 89
0.6403342485427856 -0.19378849864006042 0.11023710668087006 99 78 47
0.6411005258560181 -0.18161511421203613 0.1284063309431076 101 78 47
0.6510633826255798 -0.200345978140831 0.10379603505134583 97 76 45
0.6493225693702698 0.11287769675254822 -0.06110668182373047 98 93 87
0.6682937741279602 0.12313151359558105 -0.04107385873794556 153 138 131
0.6697081923484802 -0.11151844263076782 0.058446139097213745 102 78 50
0.6577700972557068 -0.2777649760246277 0.029215872287750244 110 111 106
0.7102415561676025 0.06768876314163208 -0.01808333396911621 107 100 92
0.6651026606559753 -0.05942089855670929 0.04365679621696472 98 80 60
0.6701738834381104 0.11774879693984985 -0.052371710538864136 154 139 134
0.6500750184059143 0.10666051506996155 -0.06694817543029785 94 89 83
0.6979992985725403 0.008403629064559937 -0.041378021240234375 89 90 84
0.642211377620697 -0.26040807366371155 0.109887033700943 102 87 66
0.6771761178970337 0.02966657280921936 -0.037546128034591675 94 94 86
0.6614359617233276 0.07784995436668396 -0.05082780122756958 135 124 120
0.6624852418899536 -0.06376463174819946 0.06883412599563599 102 79 61
0.6650662422180176 0.1594591736793518 -0.0034272074699401855 96 97 89
0.6448920369148254 -0.2016521841287613 0.11985237896442413 98 77 46
0.6776536703109741 0.08624130487442017 -0.040470391511917114 144 129 122
0.6389122605323792 -0.179489865899086 0.1187763512134552 101 80 49
0.6866679787635803 0.047639697790145874 -0.043821632862091064 88 88 80
0.6496447324752808 -0.2741333246231079 0.039669811725616455 109 110 105
0.6707565784454346 -0.11648134887218475 0.06266430020332336 102 78 50
0.6703565120697021 0.12281954288482666 -0.05583202838897705 154 140 137
0.6489524841308594 -0.1753978431224823 0.1299673318862915 97 76 45
0.6663389801979065 -0.10881184041500092 0.05938276648521423 102 78 50
0.6512316465377808 -0.21130715310573578 0.10200391709804535 97 76 47
0.6559575200080872 -0.08056257665157318 0.07972720265388489 103 79 51
0.6872925758361816 0.05934128165245056 -0.046559423208236694 98 91 85
0.6984577178955078 0.015178442001342773 -0.04076099395751953 89 90 84
0.6690995693206787 0.08900520205497742 -0.05264538526535034 146 131 124
0.6627890467643738 -0.07116371393203735 0.0679815411567688 104 80 52
0.6837365031242371 0.1801144778728485 -0.015270531177520752 100 100 92
0.6786537766456604 0.03257948160171509 -0.038898974657058716 94 94 86
0.6488143801689148 -0.21191908419132233 0.11826024949550629 97 76 45
0.7211783528327942 0.22008776664733887 -0.03628498315811157 104 101 94
0.7055715918540955 0.23138731718063354 -0.04380372166633606 99 98 93
0.6762015223503113 -0.28646498918533325 0.10923954844474792 133 132 137
0.693350613117218 0.09002989530563354 -0.03973269462585449 142 127 120
0.7080875039100647 0.06626713275909424 -0.005516320466995239 113 106 98
0.6861265897750854 0.177232563495636 -0.022803694009780884 96 97 91
0.6560903191566467 -0.16766467690467834 0.12998729944229126 100 79 48
0.6730461120605469 0.0792689323425293 -0.04353994131088257 141 126 119
0.6341471672058105 -0.1818799376487732 0.11915041506290436 101 80 49
0.6705636978149414 -0.12347844243049622 0.06769365072250366 101 78 47
0.6582627296447754 -0.07066403329372406 0.07729274034500122 103 80 49
0.6593794822692871 0.0817444920539856 -0.061865925788879395 89 84 78
0.7088451981544495 0.22544372081756592 -0.04171103239059448 99 100 94
0.6921277642250061 0.18884479999542236 -0.022856831550598145 101 101 93
0.6431682705879211 -0.22003954648971558 0.11982105672359467 98 77 46
0.6428806185722351 -0.25048354268074036 0.10804995894432068 104 84 57
0.6904594898223877 0.08587655425071716 -0.032941460609436035 141 126 119
0.6899462342262268 0.06982049345970154 -0.04547739028930664 131 116 111
0.6674454212188721 -0.2855754792690277 0.11901912093162537 137 138 140
0.6623924374580383 -0.08053374290466309 0.06964844465255737 102 78 50
0.7021749019622803 0.25743764638900757 -0.057053208351135254 103 100 95
0.6414473056793213 -0.19996672868728638 0.12916457653045654 98 77 46
0.6747889518737793 0.009069889783859253 -0.03423008322715759 91 92 84
0.6957799196243286 0.02947312593460083 -0.040111929178237915 93 93 85
0.6337747573852539 -0.19421416521072388 0.11942429840564728 100 79 48
0.7233518958091736 0.06979098916053772 -0.02903038263320923 95 95 87
0.6589844822883606 -0.06480869650840759 0.07990056276321411 101 80 61
0.6642239689826965 -0.09099601209163666 0.06871041655540466 102 79 48
0.699188768863678 0.19876262545585632 -0.02296045422554016 103 100 93
0.6400156617164612 -0.23080207407474518 0.1192677915096283 97 78 46
0.6423205733299255 -0.24031874537467957 0.10831145942211151 98 79 49
0.6698101758956909 -0.12972724437713623 0.05009159445762634 101 80 51
0.660201907157898 -0.27880433201789856 0.11737647652626038 140 140 138
0.6383634209632874 -0.22205963730812073 0.12021566927433014 98 77 46
0.7197385430335999 0.07204225659370422 -0.004759073257446289 118 109 102
0.6989582777023315 0.07628223299980164 -0.030520349740982056 136 119 112
0.6767023801803589 0.018531620502471924 -0.034986138343811035 75 76 68
0.6994456648826599 0.03564143180847168 -0.040921032428741455 93 93 85
0.6495816707611084 -0.08062203228473663 0.08960092067718506 103 79 51
0.6670286655426025 0.1631266474723816 -0.002682298421859741 99 100 92
0.6693578362464905 0.11964362859725952 -0.0523548424243927 155 140 135
0.6632751822471619 -0.10036541521549225 0.06871840357780457 102 79 48
0.642570436000824 -0.24074196815490723 0.11981427669525146 99 80 48
0.6403070688247681 -0.2345096468925476 0.10983088612556458 95 78 48
0.6704037189483643 -0.11313340067863464 0.05843174457550049 101 77 49
0.6726508736610413 0.12819385528564453 -0.0419316291809082 150 139 133
0.698890745639801 0.04905182123184204 -0.045662373304367065 92 92 84
0.6821091175079346 0.001617133617401123 -0.04078096151351929 92 93 87
0.701384425163269 0.28642725944519043 -0.07233938574790955 102 101 96
0.6593104600906372 0.09822708368301392 -0.0700482726097107 93 88 82
0.6502621173858643 -0.0822020173072815 0.08958685398101807 102 78 50
0.7199538350105286 0.21627002954483032 -0.03261023759841919 104 101 92
0.667556881904602 -0.07162238657474518 0.05842232704162598 102 78 50
0.6629946231842041 0.08968260884284973 -0.040654152631759644 147 132 125
0.6693761348724365 0.02163824439048767 -0.0341181755065918 95 95 87
0.6398789286613464 -0.25891995429992676 0.12673795223236084 109 91 67
0.6653462052345276 -0.279539555311203 0.10893063247203827 139 139 137
0.6400827169418335 -0.25252076983451843 0.11924953758716583 109 89 62
0.641657292842865 -0.2200007438659668 0.10368463397026062 97 76 47
0.7025393843650818 0.07102468609809875 -0.026609301567077637 129 114 109
0.6971504092216492 0.059679627418518066 -0.04697465896606445 90 87 80
0.6938846707344055 0.18954628705978394 -0.01666194200515747 105 102 95
0.6666532754898071 0.12744638323783875 -0.05031394958496094 147 138 133
0.6655242443084717 -0.11049126088619232 0.06947380304336548 102 79 48
0.6664276123046875 -0.06254427134990692 0.05932450294494629 103 80 62
0.6599187850952148 0.10331982374191284 -0.07151538133621216 93 88 82
0.6536644101142883 -0.09010197222232819 0.08951649069786072 103 80 49
0.7037301063537598 0.2472330927848816 -0.053348004817962646 97 96 92
0.6464520692825317 0.08825546503067017 -0.06311988830566406 93 88 82
0.6693376898765564 -0.28366905450820923 0.10972242057323456 134 132 133
0.7196688652038574 0.2219216227531433 -0.038431763648986816 101 98 91
0.6702504754066467 0.08987435698509216 -0.05798640847206116 145 134 128
0.6539697647094727 -0.06823185086250305 0.0898239016532898 102 80 56
0.6638153195381165 0.10877934098243713 -0.0427553653717041 154 137 130
0.6606663465499878 -0.09052377939224243 0.058633118867874146 102 79 48
0.6586925387382507 -0.2105320543050766 0.11961567401885986 100 79 48
0.6399573087692261 -0.26154011487960815 0.1286962628364563 98 85 66
0.6974831223487854 0.06900587677955627 -0.044437676668167114 123 112 106
0.6696582436561584 -0.12009014189243317 0.06938830018043518 101 78 47
0.6642051339149475 0.13313084840774536 -0.05026331543922424 96 93 86
0.6851463913917542 -0.28700536489486694 0.12959714233875275 97 105 108
0.6849669814109802 0.08515143394470215 -0.030185729265213013 142 127 120
0.6342998743057251 -0.18093973398208618 0.10884647071361542 102 79 47
0.6880326271057129 0.18334606289863586 -0.02006775140762329 97 98 90
0.668636679649353 0.00849047303199768 -0.035322874784469604 94 95 87
0.6551132202148438 -0.17112162709236145 0.12905296683311462 101 80 49
0.6715641617774963 0.09964078664779663 -0.05158475041389465 148 133 126
0.6702179908752441 -0.28686195611953735 0.11985273659229279 108 112 113
0.6818723678588867 0.17861205339431763 -0.011870652437210083 102 102 94
0.6582545638084412 0.12298542261123657 -0.061162322759628296 99 94 88
0.6433683633804321 -0.21022801101207733 0.1099185049533844 100 79 48
0.6417299509048462 0.09922003746032715 -0.06302225589752197 93 88 82
0.6757864356040955 -0.1207478940486908 0.05749288201332092 103 79 51
0.6449482440948486 0.10577836632728577 -0.06398323178291321 97 92 86
0.6522346138954163 -0.07067137956619263 0.08896481990814209 103 79 51
0.7039907574653625 0.20793789625167847 -0.03150659799575806 99 99 91
0.688877284526825 0.037423789501190186 -0.04056289792060852 93 93 85
0.676090657711029 0.10950517654418945 -0.05595061182975769 148 135 129
0.6574324369430542 -0.2076062113046646 0.1196417361497879 98 77 46
0.7191123366355896 0.06981515884399414 -0.020162105560302734 99 94 88
0.6599534749984741 -0.2796376943588257 0.03916037082672119 107 110 103
0.6719993948936462 0.1687605082988739 -0.0012935101985931396 104 104 96
0.6532220244407654 0.11986854672431946 -0.06014162302017212 99 94 88
0.6389346718788147 -0.17689086496829987 0.10990005731582642 101 80 49
0.669619083404541 0.019631028175354004 -0.036004066467285156 96 96 88
0.6481261253356934 -0.20057828724384308 0.10665324330329895 98 77 46
0.6400455236434937 -0.26107603311538696 0.11894804239273071 99 82 62
0.7285709977149963 0.0764341950416565 -0.0046853721141815186 119 110 103
0.6645938754081726 -0.08190572261810303 0.05940580368041992 102 79 48
0.6469698548316956 -0.27082034945487976 0.029782533645629883 100 102 97
0.6453346610069275 -0.22007015347480774 0.09717786312103271 99 78 47
0.7068058848381042 0.07332977652549744 -0.03133302927017212 128 113 108
0.6391127109527588 -0.20075742900371552 0.0793289840221405 98 77 46
0.7072463035583496 0.03928348422050476 -0.043213456869125366 91 91 83
0.6896222829818726 0.20347648859024048 -0.033923834562301636 94 95 89
0.6424165964126587 -0.17001548409461975 0.07966002821922302 97 76 49
0.6690434217453003 -0.13615480065345764 0.0685243308544159 29 21 8
0.6922629475593567 0.2189635932445526 -0.04039725661277771 95 96 90
0.6310914754867554 -0.2587719261646271 0.08955845236778259 112 96 81
0.6625248789787292 -0.072135791182518 0.01933729648590088 100 79 50
0.666388213634491 -0.2848467230796814 0.09932252764701843 126 124 125
0.7000527381896973 0.19675657153129578 -0.02297830581665039 102 102 94
0.7018073201179504 0.08031606674194336 -0.037251293659210205 137 118 112
0.6569555401802063 -0.1909317672252655 0.08958971500396729 97 76 45
0.6704233288764954 -0.05959451198577881 0.03544580936431885 102 80 56
0.6708660125732422 -0.061886027455329895 0.0012496411800384521 103 79 51
0.6390174627304077 -0.21004773676395416 0.07926520705223083 99 78 47
0.6971295475959778 0.2592170834541321 -0.057567447423934937 101 100 95
0.6875444650650024 -0.0439947247505188 0.006534606218338013 85 82 73
0.7026740908622742 0.028145164251327515 -0.04098778963088989 92 93 85
0.6573616862297058 -0.1504540890455246 0.0774589478969574 69 58 40
0.6447863578796387 -0.18090075254440308 0.07876095175743103 101 77 49
0.6666849255561829 -0.06305387616157532 0.019700974225997925 102 81 54
0.7166598439216614 0.21078777313232422 -0.02533644437789917 109 106 99
0.6316345930099487 -0.24074392020702362 0.08111995458602905 96 77 47
0.6742693781852722 0.14117762446403503 -0.04069623351097107 98 95 90
0.6709569692611694 -0.13082104921340942 0.05930587649345398 26 14 0
0.6618534922599792 -0.14132675528526306 0.06860297918319702 66 59 49
0.6609519124031067 -0.27962687611579895 0.09560917317867279 137 137 139
0.6931251287460327 0.22500964999198914 -0.04191404581069946 98 99 94
0.6486015915870667 -0.1616702675819397 0.08994510769844055 99 78 47
0.709177553653717 0.019864171743392944 -0.04250973463058472 70 71 65
0.7048762440681458 0.20267575979232788 -0.023715049028396606 104 101 92
0.699976921081543 0.23301458358764648 -0.04650983214378357 99 100 95
0.6505305171012878 -0.26845261454582214 0.0963192880153656 142 142 142
0.6596686244010925 -0.14990095794200897 0.07826310396194458 104 89 66
0.6358577013015747 -0.2613140642642975 0.08960971236228943 155 142 133
0.6807116866111755 -0.052525267004966736 0.0009115338325500488 96 81 60
0.692851185798645 0.06319132447242737 -0.0049682557582855225 127 114 106
0.683647096157074 0.07259923219680786 -0.020370393991470337 135 120 115
0.666995108127594 -0.05702981352806091 0.028484642505645752 99 83 67
0.6589891910552979 -0.27857327461242676 0.04998031258583069 108 113 107
0.7162612676620483 0.06867679953575134 -0.030214905738830566 100 95 89
0.6394524574279785 -0.1727035492658615 0.09876000881195068 101 80 49
0.6897136569023132 0.19566988945007324 -0.03252047300338745 84 85 79
0.6752195358276367 0.21694916486740112 -0.037046730518341064 97 98 92
0.6876336932182312 0.24869340658187866 -0.05118545889854431 99 98 93
0.6295410990715027 0.27868711948394775 -0.060647785663604736 102 99 94
0.6379684209823608 -0.22081293165683746 0.07989272475242615 95 76 46
0.7064377665519714 0.009812146425247192 -0.0436367392539978 90 91 83
0.6589829325675964 -0.07330457866191864 0.12020151317119598 106 82 54
0.6839498281478882 0.0821661651134491 -0.026857972145080566 140 125 118
0.6296384930610657 -0.23439568281173706 0.08921721577644348 96 77 47
0.6897851824760437 0.18790948390960693 -0.03111669421195984 96 97 91
0.6447004079818726 -0.19048896431922913 0.07867950201034546 98 77 50
0.6768059134483337 0.2208414077758789 -0.03850895166397095 97 98 92
0.6375547647476196 -0.23002122342586517 0.07829385995864868 95 76 46
0.6494532227516174 -0.21490895748138428 0.09812973439693451 97 76 47
0.722227156162262 0.07190746068954468 -0.04061323404312134 98 93 87
0.6490749716758728 -0.1583220362663269 0.089223712682724 102 81 50
0.655665934085846 -0.18793736398220062 0.08961635828018188 97 77 44
0.624899685382843 -0.24069172143936157 0.08903250098228455 95 74 45
0.6390511393547058 -0.21243640780448914 0.08824163675308228 96 75 46
0.6524451375007629 -0.2113119661808014 0.09982205927371979 98 77 48
0.6624144315719604 -0.07051892578601837 0.005013972520828247 102 78 50
0.6559293270111084 -0.1535230576992035 0.0893629789352417 104 80 46
0.6497873663902283 -0.18413761258125305 0.08957332372665405 100 80 47
0.6814256310462952 -0.07144619524478912 0.02874818444252014 102 79 48
0.6327720284461975 -0.24082468450069427 0.07895293831825256 96 77 47
0.6793752312660217 -0.2874336540699005 0.09970471262931824 123 125 124
0.6990442872047424 0.20187389850616455 -0.030643045902252197 100 100 92
0.6829665899276733 0.17826804518699646 -0.030951857566833496 96 97 91
0.6981191039085388 -0.036077335476875305 0.004450798034667969 90 92 87
0.6713067293167114 -0.13033679127693176 0.06852376461029053 36 19 1
0.6881830096244812 0.22681191563606262 -0.042430728673934937 98 99 93
0.6239709854125977 -0.2507513463497162 0.0895715057849884 90 72 48
0.6578510403633118 -0.20133677124977112 0.09790125489234924 95 74 47
0.6806957721710205 -0.06975147128105164 0.028763294219970703 101 78 47
0.6805295944213867 0.0731966495513916 -0.019028514623641968 137 122 117
0.6417980194091797 -0.17121994495391846 0.08890467882156372 101 80 51
0.6399102807044983 -0.2062912881374359 0.08684462308883667 97 76 49
0.6682466268539429 -0.06267847120761871 0.00878530740737915 99 78 51
0.6661170721054077 -0.05912470817565918 0.03921392560005188 102 84 62
0.6314077377319336 -0.25121036171913147 0.07810017466545105 85 65 41
0.680415689945221 -0.04647350311279297 0.016472458839416504 93 93 85
0.6430307626724243 -0.2613283693790436 0.09984724223613739 123 114 97
0.6878188848495483 0.25464075803756714 -0.054865747690200806 101 100 95
0.6672525405883789 -0.1334897130727768 0.059422075748443604 23 16 8
0.7081167697906494 0.06965601444244385 -0.04279959201812744 109 102 94
0.6752734184265137 -0.0639718621969223 0.019998610019683838 102 78 52
0.6455448269844055 -0.2704196870326996 0.049655914306640625 115 117 114
0.7227773070335388 0.06956157088279724 -0.031056255102157593 96 96 88
0.6700204610824585 -0.05987551808357239 0.025647908449172974 100 80 55
0.695141613483429 0.24897491931915283 -0.05222958326339722 102 101 96
0.6959546804428101 0.19982236623764038 -0.031299591064453125 96 97 91
0.6494355797767639 -0.19553609192371368 0.08633339405059814 99 78 49
0.6672829985618591 0.21887385845184326 -0.03612825274467468 101 100 95
0.6868859529495239 0.06241852045059204 -0.004380613565444946 129 114 107
0.6968938112258911 0.07038173079490662 -0.023864269256591797 133 116 109
0.6899029612541199 0.23085981607437134 -0.043973833322525024 97 98 92
0.6304923892021179 -0.23130667209625244 0.08998692035675049 96 77 47
0.647601306438446 -0.15752482414245605 0.0789831280708313 23 15 4
0.7080546617507935 0.05810973048210144 -0.047416508197784424 95 95 87
0.6617522239685059 -0.09150156378746033 0.007530897855758667 102 76 49
0.6940208673477173 0.2984083294868469 -0.07885590195655823 98 99 93
0.6470488905906677 -0.16090096533298492 0.07977291941642761 99 83 58
0.6606758832931519 -0.08243410289287567 0.00823599100112915 104 78 51
0.6366419792175293 -0.26223939657211304 0.07945775985717773 146 138 127
0.6928732395172119 0.18993330001831055 -0.03050065040588379 96 97 91
0.6424281597137451 -0.2599291503429413 0.09985971450805664 97 84 65
0.7100845575332642 0.0752604603767395 -0.040198951959609985 126 113 107
0.7064939141273499 0.04808327555656433 -0.044624000787734985 95 95 87
0.7047432661056519 0.1939273178577423 -0.012567758560180664 105 102 95
0.6936169266700745 0.28583860397338867 -0.07110589742660522 99 98 93
0.6633122563362122 0.22651216387748718 -0.038107335567474365 99 98 93
0.6384543180465698 -0.22011098265647888 0.08809113502502441 96 75 46
0.6883072257041931 0.24073892831802368 -0.04754003882408142 101 100 95
0.6705471873283386 0.25185680389404297 -0.05114948749542236 102 101 96
0.6536583304405212 -0.06985826790332794 0.10868954658508301 106 81 59
0.6667808890342712 -0.09100677073001862 0.038703709840774536 102 79 48
0.6734533309936523 0.05990487337112427 -7.62939453125e-05 134 117 110
0.6982645988464355 0.06871631741523743 -0.02191472053527832 129 114 109
0.6291459798812866 -0.23790034651756287 0.09995284676551819 94 73 44
0.6724573969841003 0.16883540153503418 -0.03133144974708557 97 98 92
0.728428840637207 0.039747804403305054 -0.041966527700424194 89 90 82
0.6471558809280396 -0.21122466027736664 0.08986124396324158 98 77 48
0.6743917465209961 0.07439494132995605 -0.01639080047607422 140 125 120
0.6778709888458252 -0.06873369216918945 0.029820263385772705 101 78 47
0.6503831148147583 -0.1882200390100479 0.09871664643287659 97 76 47
0.7293960452079773 0.07046130299568176 -0.03191196918487549 95 95 87
0.6495210528373718 -0.15814392268657684 0.09079661965370178 100 77 46
0.6475056409835815 -0.1662341058254242 0.09988412261009216 103 80 49
0.652459979057312 -0.07206606864929199 0.10940337181091309 108 84 58
0.6796528100967407 0.2622911334037781 -0.05745026469230652 100 99 94
0.6522543430328369 -0.2690960764884949 0.08901599049568176 143 143 143
0.6396002173423767 -0.2604577839374542 0.096151202917099 109 96 80
0.660167932510376 -0.11532759666442871 0.024807214736938477 102 81 52
0.6598765254020691 -0.27753451466560364 0.059824079275131226 116 118 115
0.6799634099006653 0.17631956934928894 -0.03155699372291565 97 98 92
0.7179177403450012 0.06990095973014832 -0.045219987630844116 98 93 87
0.6650903224945068 0.20928451418876648 -0.033295005559921265 99 100 94
0.7110849022865295 0.20125481486320496 -0.018894731998443604 107 104 97
0.7294683456420898 0.028700679540634155 -0.042622148990631104 92 93 87
0.6496296525001526 -0.20018312335014343 0.08702549338340759 96 75 46
0.6795544624328613 -0.0740002989768982 0.028015971183776855 103 80 49
0.6698195338249207 -0.08634547889232635 0.038498252630233765 102 79 48
0.6516578793525696 -0.19117993116378784 0.09869028627872467 97 76 49
0.6785553693771362 0.24429184198379517 -0.04858529567718506 101 100 95
0.6696881055831909 0.1897050440311432 -0.03403392434120178 96 97 91
0.7155954241752625 0.05936110019683838 -0.04435759782791138 94 94 86
0.6397771239280701 -0.1987822949886322 0.0839003324508667 99 78 49
0.6574531197547913 -0.08841261267662048 0.10995635390281677 103 79 53
0.67509526014328 -0.08113950490951538 0.029285311698913574 101 78 47
0.6657968759536743 0.08351719379425049 -0.02074328064918518 144 129 124
0.6743701100349426 -0.28679612278938293 0.0793268084526062 114 118 119
0.726515531539917 0.018324702978134155 -0.04378384351730347 94 94 86
0.6624977588653564 -0.27873924374580383 0.08976659178733826 131 131 133
0.6937246918678284 0.2252490520477295 -0.039800018072128296 98 99 94
0.71722811460495 0.04849997162818909 -0.04298800230026245 80 80 72
0.6773512363433838 0.062042683362960815 -0.0044133663177490234 135 118 111
0.674879252910614 -0.050417929887771606 0.019695550203323364 94 90 79
0.705371618270874 0.0775759220123291 -0.04072803258895874 135 118 111
0.6743533611297607 0.23250597715377808 -0.041980892419815063 101 100 95
0.6692951321601868 0.19952121376991272 -0.03338196873664856 92 93 87
0.6668351292610168 -0.06079190969467163 0.03919908404350281 102 80 56
0.6375362873077393 -0.2573821544647217 0.09977935254573822 106 90 67
0.6986952424049377 0.21533915400505066 -0.03777638077735901 98 99 93
0.646415650844574 -0.2674456238746643 0.07944127917289734 132 133 127
0.6867116689682007 0.06480225920677185 -0.011388421058654785 132 115 108
0.6694392561912537 -0.2857934236526489 0.08979004621505737 119 119 121
0.6474543809890747 -0.2700112760066986 0.06757336854934692 121 122 114
0.7261903882026672 0.009174376726150513 -0.04641145467758179 91 92 84
0.6533724069595337 0.2745102047920227 -0.061941683292388916 95 96 90
0.6568458676338196 -0.27665087580680847 0.06967821717262268 121 120 118
0.6658385992050171 0.25362634658813477 -0.051691919565200806 102 101 96
0.7101288437843323 0.07271337509155273 -0.032767295837402344 125 112 106
0.6639854907989502 0.07313767075538635 -0.01128607988357544 142 127 122
0.6684406399726868 -0.06038615107536316 0.028454750776290894 101 81 56
0.6400591135025024 -0.2025415301322937 0.07402530312538147 98 77 46
0.7180044054985046 0.03962716460227966 -0.04160061478614807 92 92 84
0.6391236186027527 -0.2266560196876526 0.09904107451438904 99 78 47
0.6671968102455139 0.16529998183250427 -0.0305139422416687 100 99 94
0.7279243469238281 0.06757652759552002 -0.04009506106376648 95 94 89
0.6575311422348022 -0.08099660277366638 0.11985640227794647 104 80 52
0.666328489780426 0.1799631118774414 -0.035249412059783936 88 89 83
0.6644263863563538 0.26121312379837036 -0.05735161900520325 98 99 93
0.6623456478118896 -0.12142372131347656 0.03847852349281311 103 80 49
0.672934353351593 -0.08161289989948273 0.03827211260795593 101 78 47
0.6679182648658752 0.08006557822227478 -0.01886594295501709 144 129 122
0.6680668592453003 -0.07966108620166779 0.026186347007751465 101 77 49
0.641589879989624 -0.21002733707427979 0.07469263672828674 99 78 47
0.6393025517463684 -0.2310411036014557 0.09968654811382294 98 79 47
0.7152473330497742 0.029287070035934448 -0.042812466621398926 91 92 84
0.7280310392379761 0.20410141348838806 -0.011862367391586304 165 160 156
0.675327718257904 0.2091222107410431 -0.035619527101516724 94 95 89
0.693394124507904 0.29815810918807983 -0.08106586337089539 99 100 94
0.6404749155044556 -0.22085784375667572 0.07537949085235596 93 72 43
0.6274101734161377 -0.2509915232658386 0.09959530830383301 102 84 60
0.6767436265945435 0.1895664632320404 -0.03492993116378784 98 99 93
0.6585628986358643 -0.2003074288368225 0.08870890736579895 98 77 46
0.7297957539558411 0.054333508014678955 -0.040769755840301514 94 95 89
0.6674195528030396 0.24378782510757446 -0.048117101192474365 100 101 95
0.6410410404205322 -0.1707516312599182 0.09957079589366913 100 79 48
0.6630699634552002 -0.1103835254907608 0.03997349739074707 102 79 48
0.6663341522216797 0.12841591238975525 -0.0298004150390625 145 136 131
0.6552600860595703 -0.07094807922840118 0.11927644908428192 108 82 57
0.6560280919075012 -0.16126197576522827 0.09943990409374237 100 77 46
0.7175444960594177 0.20873364806175232 -0.025354743003845215 110 107 100
0.6499497890472412 -0.2676924169063568 0.08974185585975647 147 146 144
0.7187813520431519 0.01955246925354004 -0.044878095388412476 88 89 83
0.6674327850341797 -0.13035325706005096 0.04932317137718201 98 77 48
0.6688594818115234 0.1400548219680786 -0.037868112325668335 98 97 92
0.668546199798584 -0.2825496792793274 0.07934528589248657 120 120 118
0.6732242107391357 0.0807776153087616 -0.021514326333999634 143 128 121
0.6732431650161743 -0.07011626660823822 0.038085609674453735 103 78 48
0.6679739952087402 -0.08340282738208771 0.028908610343933105 102 78 50
0.6486960649490356 -0.2708379626274109 0.0585821270942688 115 117 112
0.6795806884765625 0.19924694299697876 -0.03570747375488281 96 97 91
0.624825656414032 -0.24126924574375153 0.09901821613311768 98 77 48
0.6696295142173767 0.2343050241470337 -0.042530834674835205 100 99 94
0.660756528377533 -0.10017107427120209 0.03913736343383789 103 80 49
0.6406053900718689 -0.23156052827835083 0.07381072640419006 96 77 47
0.6390840411186218 -0.21531017124652863 0.0904177725315094 96 75 46
0.6509544253349304 -0.21070586144924164 0.08996599912643433 99 78 47
0.6904012560844421 0.06439360976219177 -0.010764777660369873 128 113 106
0.6480322480201721 -0.1869848519563675 0.09942622482776642 98 77 48
0.658942461013794 -0.15908436477184296 0.09802140295505524 101 78 47
0.6663994193077087 0.06073009967803955 -0.0013633370399475098 138 121 114
0.6399055123329163 -0.19448460638523102 0.07789912819862366 97 76 47
0.65882408618927 -0.06791806221008301 0.11955167353153229 105 83 60
0.7291197776794434 0.04701739549636841 -0.04137614369392395 95 95 87
0.6849449872970581 0.21893668174743652 -0.03947797417640686 98 99 93
0.6714144349098206 0.24984300136566162 -0.051167428493499756 102 101 96
0.7159665822982788 0.00940251350402832 -0.04601547122001648 91 92 84
0.6717796921730042 -0.28727099299430847 0.08907589316368103 124 124 126
0.660590410232544 -0.1425463855266571 0.04883119463920593 101 78 47
0.6772966980934143 -0.05165734887123108 0.008562445640563965 95 84 66
0.6645722389221191 0.2874407172203064 -0.0699981153011322 95 96 90
0.6627482175827026 -0.278350293636322 0.0793803334236145 123 122 120
0.6703613996505737 -0.06342501938343048 0.03814518451690674 105 79 52
0.6371358633041382 0.22739970684051514 -0.03992834687232971 98 97 92
0.6682915091514587 -0.1014011800289154 0.10436706244945526 102 78 50
0.614232063293457 0.10844999551773071 -0.04150110483169556 104 99 95
0.6420766115188599 -0.23039042949676514 0.06776925921440125 96 75 46
0.5915001630783081 0.049809664487838745 -0.04307669401168823 92 87 81
0.6567546725273132 0.07588362693786621 -0.01060137152671814 143 130 124
0.6684095859527588 -0.09017506241798401 0.11935345828533173 104 80 52
0.6576956510543823 0.16903424263000488 -0.03365218639373779 94 95 89
0.6526028513908386 -0.1512717455625534 0.0483890175819397 102 78 44
0.6412092447280884 -0.180099755525589 0.049872130155563354 100 79 50
0.6294992566108704 0.10420504212379456 -0.0011464059352874756 148 139 134
0.639631986618042 -0.19677230715751648 0.0679299533367157 97 76 47
0.6505732536315918 -0.21348100900650024 0.053690940141677856 99 78 47
0.7340880632400513 -0.14002154767513275 0.16170600056648254 130 112 90
0.6604443788528442 0.2749699354171753 -0.06303590536117554 98 99 93
0.6761121153831482 -0.28739017248153687 0.059468984603881836 106 114 117
0.6392161250114441 -0.12651364505290985 0.0198705792427063 103 80 49
0.5924909114837646 0.0180056095123291 -0.05038073658943176 91 88 81
0.6581176519393921 0.2530357241630554 -0.05271849036216736 101 100 95
0.6612715721130371 -0.2779431939125061 0.0696498453617096 117 117 117
0.6690978407859802 -0.14869585633277893 0.09447337687015533 102 79 48
0.650995671749115 0.08163443207740784 -0.011167258024215698 147 132 127
0.658542275428772 -0.07715068757534027 0.02412271499633789 100 79 50
0.7312399744987488 -0.1387888491153717 0.1622878909111023 131 113 91
0.6458911895751953 -0.2207866758108139 0.06777459383010864 97 76 47
0.5908674597740173 0.17851132154464722 -0.029317915439605713 95 96 88
0.6770347952842712 -0.12150782346725464 0.11882616579532623 101 80 51
0.6477363109588623 0.13924607634544373 -0.011983484029769897 96 97 91
0.6482222676277161 -0.1290224939584732 0.029283612966537476 100 79 48
0.5970191955566406 0.1395406723022461 -0.03490322828292847 102 102 94
0.5974928736686707 0.05952036380767822 -0.044606029987335205 85 82 73
0.6683818697929382 -0.11041505634784698 0.1000836044549942 101 80 49
0.6469524502754211 0.18842053413391113 -0.030056804418563843 99 100 94
0.6458644866943359 -0.17104774713516235 0.04962995648384094 96 75 46
0.6374739408493042 0.21445918083190918 -0.03522658348083496 98 99 93
0.645796000957489 -0.26799097657203674 0.05939924716949463 120 122 117
0.6279885768890381 0.09439578652381897 -0.0006605982780456543 154 139 134
0.646024227142334 0.08596214652061462 -0.020468950271606445 149 134 127
0.6699745059013367 -0.1314147412776947 0.09154435992240906 101 77 49
0.6572221517562866 0.17852160334587097 -0.03298598527908325 100 101 95
0.6677249073982239 -0.08858528733253479 0.11936761438846588 103 79 51
0.6003980040550232 0.13331130146980286 -0.041772276163101196 103 103 95
0.6497402191162109 -0.2700998783111572 0.08015134930610657 131 133 128
0.6599910259246826 -0.12207506597042084 0.037745535373687744 103 80 49
0.7460128664970398 -0.14496564865112305 0.15924860537052155 135 120 101
0.6694827079772949 -0.2836327850818634 0.06876006722450256 114 114 114
0.6117909550666809 0.09819817543029785 -0.044388413429260254 97 94 89
0.657313883304596 0.26082849502563477 -0.056280940771102905 97 98 92
0.6570152044296265 0.1416943371295929 -0.030227482318878174 91 92 86
0.6599031090736389 -0.1376063972711563 0.04635322093963623 103 78 48
0.66004878282547 -0.16042844951152802 0.09959480166435242 99 78 47
0.6598268747329712 -0.08782677352428436 0.029482990503311157 101 77 49
0.594853401184082 0.0683644711971283 -0.04101243615150452 91 88 81
0.6768408417701721 -0.11102978885173798 0.11751368641853333 102 81 50
0.6494056582450867 -0.11665445566177368 0.02053055167198181 103 80 49
0.6449928283691406 0.12836438417434692 -0.015230447053909302 97 98 92
0.6415168642997742 -0.24018917977809906 0.05948120355606079 97 76 47
0.6516874432563782 0.2904282212257385 -0.06920847296714783 98 97 92
0.6614692211151123 -0.20141220092773438 0.08949637413024902 99 78 47
0.6594825983047485 0.2455211877822876 -0.04710671305656433 102 101 96
0.6399286389350891 -0.1889253407716751 0.06637531518936157 99 78 49
0.6121211051940918 0.08761152625083923 -0.04863083362579346 95 92 87
0.6482174396514893 0.20936906337738037 -0.03012147545814514 100 101 95
0.6453348994255066 -0.21001413464546204 0.0678119957447052 99 78 49
0.6461746096611023 0.09958979487419128 -0.02109450101852417 154 137 130
0.6270398497581482 0.08947399258613586 -0.0013634264469146729 154 139 132
0.6525396108627319 0.12880611419677734 -0.02108660340309143 95 94 89
0.6588901281356812 -0.1134001612663269 0.038549989461898804 104 81 50
0.6058719754219055 0.1278616189956665 -0.041328221559524536 105 102 95
0.5981652736663818 0.03939327597618103 -0.05271881818771362 90 86 77
0.7407113313674927 -0.15672746300697327 0.15983936190605164 131 115 99
0.6666094064712524 -0.07443466782569885 0.11972926557064056 103 79 51
0.6304505467414856 0.1139046847820282 -0.003456681966781616 94 93 88
0.6732023358345032 -0.1013035774230957 0.11925435066223145 102 81 50
0.6439120173454285 0.11828866600990295 -0.012771934270858765 101 96 90
0.645395815372467 0.10139808058738708 -0.021078377962112427 156 139 132
0.6576918363571167 -0.2756286561489105 0.07937601208686829 126 126 128
0.6573564410209656 0.28685295581817627 -0.06881794333457947 96 97 91
0.6734201312065125 -0.0979640930891037 0.10953283309936523 103 79 51
0.6586335301399231 0.15977472066879272 -0.03228333592414856 97 98 92
0.6599119901657104 -0.14097104966640472 0.04884520173072815 102 78 50
0.6117219924926758 0.07433769106864929 -0.04966196417808533 94 89 83
0.6397507190704346 -0.11948145925998688 0.01625657081604004 103 80 48
0.6369123458862305 0.12919750809669495 -0.000753551721572876 97 98 92
0.6092488169670105 0.1141737699508667 -0.04011300206184387 106 103 96
0.6591153740882874 -0.1024991124868393 0.03836345672607422 102 79 48
0.6561058163642883 -0.09083177149295807 0.029795855283737183 103 79 51
0.6419675350189209 -0.2010127305984497 0.06942296028137207 98 77 48
0.6556370854377747 0.2395891547203064 -0.04413220286369324 100 101 95
0.6694822907447815 -0.15180560946464539 0.09842610359191895 102 79 48
0.6529266238212585 0.0645727813243866 -0.00019872188568115234 141 126 121
0.5995073914527893 0.02983337640762329 -0.053266704082489014 92 88 79
0.6471629738807678 -0.22135445475578308 0.058526307344436646 96 75 44
0.6332702040672302 0.09998011589050293 -0.004224687814712524 153 138 133
0.6444171071052551 0.10948434472084045 -0.013480812311172485 151 140 134
0.6717016100883484 -0.09280115365982056 0.1186322569847107 103 79 51
0.6767240762710571 -0.10063759982585907 0.10878574848175049 102 78 50
