ply
format ascii 1.0
element vertex 687
property float x
property float y
property float z
property uchar red
property uchar green
property uchar blue
end_header
1.1176584959030151 0.5109860897064209 0.20878943800926208 156 161 165
0.9713618755340576 0.5256632566452026 0.07927493751049042 152 153 155
0.7165014743804932 0.6321796178817749 0.39475393295288086 176 180 183
1.0164365768432617 0.5500937700271606 0.10341644287109375 156 160 161
1.0511958599090576 0.5043691396713257 0.14974179863929749 155 163 165
1.0445094108581543 0.5487185716629028 0.14816592633724213 163 168 171
0.8919172286987305 0.5830074548721313 0.24966558814048767 167 173 173
0.9200364351272583 0.6023675203323364 0.20445063710212708 165 169 172
0.7900991439819336 0.6285587549209595 0.35944032669067383 183 184 188
0.8559914827346802 0.6099358797073364 0.2699533998966217 166 169 174
1.1174302101135254 0.4814373552799225 0.22007742524147034 166 174 177
1.1171942949295044 0.5073403120040894 0.20957918465137482 156 161 165
0.8541845679283142 0.5884299278259277 0.2786279022693634 172 173 178
0.8030651807785034 0.5880857706069946 0.2946969270706177 169 177 180
0.8401144742965698 0.6028531789779663 0.2794206738471985 171 177 177
0.9904038310050964 0.5181092023849487 0.1270286589860916 155 161 161
0.900404691696167 0.5835705995559692 0.25972211360931396 174 178 181
1.1013423204421997 0.526552677154541 0.22769764065742493 169 174 180
0.7798069715499878 0.5958967208862305 0.33635735511779785 183 187 190
1.1207363605499268 0.48719891905784607 0.21704362332820892 165 173 176
0.8216007947921753 0.6018064022064209 0.32992228865623474 164 167 172
1.0511432886123657 0.49597594141960144 0.14983317255973816 159 167 169
1.0421717166900635 0.558092474937439 0.14768503606319427 161 166 169
1.0112141370773315 0.5430667400360107 0.10744281113147736 157 161 160
0.8616141676902771 0.5809398889541626 0.28906142711639404 171 172 177
0.8018971681594849 0.6133246421813965 0.3096243143081665 176 179 184
0.8581537008285522 0.596245527267456 0.26961445808410645 171 174 181
1.0914552211761475 0.46968767046928406 0.18835139274597168 153 158 161
1.071169376373291 0.5130702257156372 0.19916266202926636 168 173 177
0.9200724363327026 0.5991970300674438 0.20742909610271454 162 166 169
1.1001520156860352 0.5154714584350586 0.22982925176620483 160 165 171
0.9903269410133362 0.5219285488128662 0.12586084008216858 153 159 159
1.1165797710418701 0.4990716874599457 0.20920023322105408 157 165 167
1.0009069442749023 0.533143162727356 0.11408825218677521 156 160 159
1.1272931098937988 0.5396311283111572 0.20812426507472992 155 163 166
0.7921077013015747 0.6190958023071289 0.3578348159790039 188 189 194
1.0409923791885376 0.5170590877532959 0.13969847559928894 152 157 160
1.0894402265548706 0.4786819517612457 0.1901431381702423 151 156 159
1.1105270385742188 0.47100314497947693 0.22789356112480164 166 174 177
0.8803194761276245 0.5895607471466064 0.23573145270347595 157 156 161
0.7774186134338379 0.6061220169067383 0.3397289514541626 179 183 186
0.8316625356674194 0.6109129190444946 0.3246757388114929 170 174 177
0.7614655494689941 0.622071385383606 0.38928091526031494 174 175 179
0.9675552248954773 0.5467194318771362 0.09979481995105743 157 161 162
0.982001781463623 0.5802454948425293 0.18938156962394714 165 169 170
0.7379171848297119 0.619132399559021 0.3660566210746765 174 177 184
0.9716150760650635 0.5794559717178345 0.19518522918224335 171 175 176
1.105442762374878 0.4972534477710724 0.2190869152545929 155 160 164
0.9510825872421265 0.5861481428146362 0.17869560420513153 155 161 161
1.0709972381591797 0.5150048732757568 0.1872134506702423 164 172 175
1.1192030906677246 0.5524531602859497 0.20632719993591309 164 172 175
1.1603978872299194 0.4939747154712677 0.2345026284456253 158 163 169
0.751568615436554 0.6176489591598511 0.37992119789123535 180 181 186
1.1314136981964111 0.4831635653972626 0.23902660608291626 171 174 179
1.1205670833587646 0.5195015668869019 0.20949465036392212 153 161 164
1.1050565242767334 0.5319582223892212 0.22260025143623352 166 174 177
0.8030917644500732 0.5983949899673462 0.29811155796051025 173 181 184
0.8503379821777344 0.597718358039856 0.2792617082595825 168 172 175
1.1465833187103271 0.4796753227710724 0.24836692214012146 163 168 172
0.8937665820121765 0.5919837951660156 0.24188125133514404 167 168 170
1.0897290706634521 0.4776163399219513 0.18822821974754333 151 157 157
1.0760866403579712 0.48918232321739197 0.17861531674861908 165 170 174
1.0211246013641357 0.5514864921569824 0.1586216539144516 164 168 169
1.0015467405319214 0.5388883352279663 0.10733996331691742 153 157 156
0.8223921060562134 0.6126887798309326 0.31901299953460693 166 170 173
0.7321503758430481 0.6321544647216797 0.38917356729507446 189 193 196
0.8107876777648926 0.6047558784484863 0.30300623178482056 171 176 180
1.0490528345108032 0.49959322810173035 0.14845696091651917 155 163 165
1.1085788011550903 0.5090415477752686 0.21912503242492676 153 158 162
0.9717202186584473 0.5682201385498047 0.19991639256477356 165 169 170
0.8800098896026611 0.5907028913497925 0.23778411746025085 157 156 161
1.1304019689559937 0.47896280884742737 0.2312038242816925 170 175 181
0.9619923830032349 0.5561239719390869 0.09854121506214142 162 166 167
0.8233422040939331 0.6219134330749512 0.3121959865093231 167 172 176
0.8510358333587646 0.6091148853302002 0.27597248554229736 176 180 183
0.8034131526947021 0.6077316999435425 0.29957327246665955 175 180 184
1.1105462312698364 0.5417184829711914 0.20981575548648834 166 174 177
1.0006239414215088 0.5264010429382324 0.11863788962364197 157 163 161
1.1212314367294312 0.5281143188476562 0.20988315343856812 153 161 164
0.9840390086174011 0.5397686958312988 0.08916223049163818 149 154 157
1.061951756477356 0.5093425512313843 0.19868823885917664 163 168 172
0.750837504863739 0.6205775737762451 0.3778746724128723 179 180 185
0.7300291061401367 0.6403239965438843 0.38107845187187195 185 190 193
1.130231261253357 0.49021002650260925 0.25868135690689087 171 176 180
0.9234685897827148 0.5894666910171509 0.20739203691482544 168 172 175
1.031744122505188 0.5562316179275513 0.1686645895242691 166 172 172
1.0815856456756592 0.48899587988853455 0.18629120290279388 158 163 167
1.0786190032958984 0.47900816798210144 0.17493756115436554 155 160 164
0.8573876619338989 0.5869536399841309 0.2683871388435364 172 175 182
0.7620501518249512 0.6199147701263428 0.3854053020477295 172 173 177
1.0445222854614258 0.5080442428588867 0.14767900109291077 150 155 158
0.8118992447853088 0.599594235420227 0.3014291226863861 166 174 177
1.1516058444976807 0.4912774860858917 0.24245065450668335 167 172 176
0.9417107105255127 0.5620108842849731 0.21754705905914307 158 163 166
1.021751880645752 0.5491724014282227 0.1544630378484726 164 170 170
1.1407206058502197 0.4884937107563019 0.24997392296791077 166 171 177
0.7340117692947388 0.6253921985626221 0.3694983720779419 185 190 193
1.0942165851593018 0.48670026659965515 0.19101165235042572 151 156 159
1.0507211685180664 0.4976629316806793 0.13739845156669617 158 163 166
1.1210060119628906 0.49911531805992126 0.20984357595443726 160 168 170
1.0713346004486084 0.4995860159397125 0.18201276659965515 165 170 176
0.8120989799499512 0.5881748199462891 0.29600995779037476 162 170 172
0.804036021232605 0.6160684823989868 0.2990330755710602 175 180 184
0.8509930968284607 0.6110318899154663 0.2713245451450348 175 179 182
0.9101319313049316 0.6002743244171143 0.20813681185245514 168 172 173
0.9833130240440369 0.529807448387146 0.07960584759712219 152 152 154
1.1216453313827515 0.4744708240032196 0.22876086831092834 169 177 180
0.7201111912727356 0.6353055238723755 0.3934125304222107 179 183 186
0.7808541059494019 0.6010270118713379 0.3383607864379883 183 187 190
0.9876092672348022 0.5697181224822998 0.18774817883968353 166 171 174
1.1091632843017578 0.5174683332443237 0.21958079934120178 157 162 166
0.9702577590942383 0.5906111001968384 0.18052974343299866 167 171 172
1.046539068222046 0.5178077220916748 0.1499292105436325 155 160 163
0.8803423643112183 0.5828932523727417 0.24798321723937988 157 161 164
0.841615617275238 0.6109393835067749 0.26996156573295593 174 178 179
0.8585995435714722 0.5789194107055664 0.2695060968399048 172 175 182
1.068920373916626 0.5130480527877808 0.19883576035499573 165 170 174
0.7911733388900757 0.5935570001602173 0.3481534719467163 177 177 185
1.010446310043335 0.5332372188568115 0.11547476053237915 159 165 163
1.120490312576294 0.5088253021240234 0.20519229769706726 155 163 166
0.8473188281059265 0.6217011213302612 0.2651013135910034 172 176 177
1.129294753074646 0.4802105128765106 0.2264489233493805 169 174 180
1.0735654830932617 0.5091085433959961 0.18447619676589966 167 175 178
0.7228937149047852 0.6414873600006104 0.39003634452819824 179 184 187
0.9704087376594543 0.529179573059082 0.08559395372867584 157 161 164
0.9824142456054688 0.5749022960662842 0.18821941316127777 168 172 173
0.8704104423522949 0.5839290618896484 0.28792059421539307 166 167 171
0.9717886447906494 0.5824849605560303 0.19218328595161438 168 172 175
0.7817355394363403 0.5970011949539185 0.33862581849098206 183 187 190
0.9825732111930847 0.5198975801467896 0.07014185190200806 151 152 154
0.8302095532417297 0.6049028635025024 0.3289538621902466 172 176 179
1.095712661743164 0.47981223464012146 0.19301176071166992 154 159 162
0.9686790704727173 0.5391062498092651 0.09477457404136658 157 163 163
1.1109459400177002 0.4813733994960785 0.21913495659828186 164 172 175
1.0466102361679077 0.5266467332839966 0.14982037246227264 151 156 159
0.8113839626312256 0.6122965812683105 0.30894890427589417 173 178 182
1.0012290477752686 0.5400604009628296 0.10944631695747375 153 157 156
1.0849460363388062 0.46962347626686096 0.1874052882194519 150 156 156
0.8000277280807495 0.6245789527893066 0.2978031635284424 172 175 180
0.9312868118286133 0.5842446088790894 0.20718516409397125 159 163 166
1.04639732837677 0.5499542951583862 0.16760392487049103 163 168 171
1.0800681114196777 0.5150942802429199 0.18853190541267395 163 171 174
0.7807154655456543 0.6105319261550903 0.34822559356689453 179 183 186
0.9230438470840454 0.5738171339035034 0.22864151000976562 163 166 171
0.9911237955093384 0.597936749458313 0.16963377594947815 162 167 170
0.9908344745635986 0.5314656496047974 0.11809627711772919 152 156 155
0.921893835067749 0.5952763557434082 0.21783247590065002 167 171 174
1.000016689300537 0.5247920751571655 0.12397624552249908 157 163 161
0.8400312662124634 0.5869531631469727 0.28959235548973083 177 180 185
0.9693657755851746 0.5681970119476318 0.19957420229911804 166 170 171
0.8237729668617249 0.6090539693832397 0.304586797952652 162 168 168
1.0416414737701416 0.5617578029632568 0.10080970823764801 157 161 164
0.8135486841201782 0.6114846467971802 0.3156818747520447 174 175 180
1.048328161239624 0.5289446115493774 0.15424783527851105 151 156 159
1.11114501953125 0.49763616919517517 0.21319645643234253 157 165 168
1.0805414915084839 0.4846608340740204 0.17821823060512543 156 161 165
1.121586799621582 0.5379651784896851 0.2122911512851715 156 164 167
1.0793713331222534 0.4753773510456085 0.18280890583992004 155 160 163
1.0575889348983765 0.479973703622818 0.1368151754140854 161 165 168
0.9100578427314758 0.6064479351043701 0.22821557521820068 168 169 171
1.0998642444610596 0.5020560026168823 0.19016820192337036 154 159 163
0.8804559111595154 0.5597693920135498 0.010376453399658203 153 154 149
1.033905267715454 0.5348148345947266 0.13828478753566742 165 170 173
0.860289990901947 0.584739089012146 0.26470044255256653 172 175 182
0.9233657717704773 0.5697464942932129 0.22938022017478943 160 164 167
0.9802854657173157 0.5895243883132935 0.17981582880020142 170 174 175
0.8716083765029907 0.5795094966888428 0.27997836470603943 159 163 166
1.041356086730957 0.5510596036911011 0.16898684203624725 164 169 172
0.8317306041717529 0.5924104452133179 0.29853135347366333 169 175 175
1.0701909065246582 0.5142625570297241 0.17801564931869507 165 170 174
0.9500298500061035 0.5865648984909058 0.18810559809207916 157 158 160
0.8980992436408997 0.5835479497909546 0.2593870162963867 172 176 179
0.9212199449539185 0.6007075309753418 0.21912255883216858 164 168 171
1.0020768642425537 0.5182242393493652 0.12872529029846191 160 166 166
0.7207157015800476 0.6251695156097412 0.39708569645881653 182 186 189
0.9655861258506775 0.5360301733016968 0.07996593415737152 158 162 163
1.1116812229156494 0.5058157444000244 0.2136114537715912 154 159 163
0.9704570174217224 0.5414845943450928 0.09935693442821503 160 166 166
1.0238227844238281 0.5370255708694458 0.14105062186717987 164 169 172
1.048081398010254 0.5163252353668213 0.15535475313663483 153 158 161
0.9616660475730896 0.5775833129882812 0.19885148108005524 165 171 171
0.8213081359863281 0.5985746383666992 0.3007592558860779 162 168 168
0.9080426692962646 0.5861619710922241 0.24934253096580505 175 180 183
1.0504374504089355 0.5390913486480713 0.15658465027809143 155 160 163
1.0846045017242432 0.47666844725608826 0.17873141169548035 151 156 159
1.0799568891525269 0.48681744933128357 0.18209387362003326 159 164 170
1.0529401302337646 0.4893466532230377 0.1379198282957077 163 168 171
1.099471926689148 0.49844619631767273 0.19103316962718964 153 158 161
0.9911984801292419 0.5681670904159546 0.15964891016483307 158 162 165
1.1085453033447266 0.5405725240707397 0.2074621170759201 165 173 176
0.9623081684112549 0.5495976209640503 0.07742901146411896 157 161 162
1.1507022380828857 0.4888354241847992 0.2449711561203003 169 174 178
0.8939484357833862 0.579463005065918 0.2593212425708771 171 175 178
1.14152193069458 0.49084845185279846 0.2474895715713501 164 169 175
0.7614846229553223 0.6234743595123291 0.36948278546333313 169 174 178
1.0702269077301025 0.5094581842422485 0.17695602774620056 165 170 174
1.1326497793197632 0.4891902506351471 0.25712138414382935 170 175 181
0.8759137392044067 0.5824272632598877 0.27813485264778137 157 161 162
0.8608766198158264 0.578941822052002 0.26983705163002014 169 172 179
1.0222195386886597 0.5256787538528442 0.13678932189941406 163 168 171
0.8235581517219543 0.5890064239501953 0.29125624895095825 165 171 171
0.9009989500045776 0.5939773321151733 0.2380904257297516 169 170 172
1.0508654117584229 0.5231101512908936 0.16813628375530243 154 159 162
0.7406114339828491 0.625698447227478 0.3784257769584656 175 176 180
0.7878147959709167 0.598544716835022 0.3495440185070038 183 182 188
0.9374583959579468 0.5666282176971436 0.20915570855140686 156 160 161
1.088611364364624 0.49724921584129333 0.1874583512544632 157 162 166
0.7715682983398438 0.6199920177459717 0.3568618893623352 169 175 175
0.9554410576820374 0.5567382574081421 0.08963339030742645 157 163 163
1.105515480041504 0.5378067493438721 0.20995524525642395 167 175 178
1.0902550220489502 0.5244717597961426 0.19926857948303223 163 168 174
0.96559739112854 0.5291321277618408 0.08489464223384857 158 162 165
0.731818675994873 0.6337218284606934 0.36921387910842896 189 193 196
1.0502493381500244 0.5494532585144043 0.15860505402088165 155 160 163
1.0465149879455566 0.5091854333877563 0.15002289414405823 153 158 161
1.020004391670227 0.5468348264694214 0.14995934069156647 164 170 170
0.9710952639579773 0.5391300916671753 0.09512576460838318 157 163 163
0.9622080326080322 0.5823904275894165 0.19079077243804932 163 167 168
1.111403226852417 0.5174903869628906 0.21990638971328735 156 161 165
1.0832914113998413 0.46900543570518494 0.1716371774673462 149 157 159
0.967831015586853 0.5905871391296387 0.1801770031452179 167 171 172
1.071926236152649 0.49740317463874817 0.17809003591537476 164 169 175
0.8012722730636597 0.5906808376312256 0.32953640818595886 176 181 185
0.9619833827018738 0.5507957935333252 0.07958222925662994 158 162 163
0.8461287021636963 0.5778757333755493 0.2892133593559265 171 174 179
1.1354236602783203 0.47918030619621277 0.2594199776649475 167 171 180
1.0385050773620605 0.5220048427581787 0.14028672873973846 154 159 162
1.08034086227417 0.5091753005981445 0.18546095490455627 162 169 175
0.7712712287902832 0.621087908744812 0.3588312268257141 171 175 176
0.9318727254867554 0.5758787393569946 0.20887130498886108 157 161 164
0.7860740423202515 0.6065281629562378 0.34910082817077637 186 187 192
0.9217000007629395 0.5872802734375 0.22845929861068726 168 172 175
1.1522796154022217 0.47999098896980286 0.2427709698677063 158 161 166
1.0485045909881592 0.536929726600647 0.16889576613903046 156 161 164
1.0506737232208252 0.5193207263946533 0.16911581158638 156 161 164
0.9075841903686523 0.6014128923416138 0.23561306297779083 174 174 176
1.162238597869873 0.48946478962898254 0.23358485102653503 156 161 165
0.9756004810333252 0.5925562381744385 0.17599168419837952 171 175 176
1.0337600708007812 0.5400097370147705 0.13920946419239044 162 167 170
0.7471421360969543 0.6176053285598755 0.3792778253555298 179 180 185
0.9590359330177307 0.5489189624786377 0.08496840298175812 159 163 164
1.0248007774353027 0.5508543252944946 0.1495690792798996 164 170 170
0.7354512810707092 0.6280243396759033 0.38955554366111755 188 189 193
1.125387191772461 0.549690842628479 0.21020853519439697 158 166 169
1.1124587059020996 0.5298155546188354 0.21961796283721924 157 165 168
1.1027346849441528 0.48914971947669983 0.21832524240016937 153 161 164
0.8102943301200867 0.6043853759765625 0.3177356421947479 176 175 181
0.8208706378936768 0.6112685203552246 0.3082734942436218 165 170 174
0.7604278922080994 0.6190866231918335 0.36131173372268677 172 175 180
1.0500891208648682 0.5545986890792847 0.15964622795581818 162 167 170
1.0485761165618896 0.4970584809780121 0.15148916840553284 156 164 166
0.799005925655365 0.5900053977966309 0.33532822132110596 179 184 190
0.8807926177978516 0.5585271120071411 0.00814405083656311 154 155 150
0.9191411137580872 0.5995169878005981 0.21667730808258057 165 169 172
1.0403883457183838 0.5597597360610962 0.15929245948791504 164 170 170
1.0596152544021606 0.49827513098716736 0.1551227569580078 163 171 173
0.8304163217544556 0.598664402961731 0.3020831048488617 171 175 176
0.8001326322555542 0.6102354526519775 0.3116861879825592 177 180 185
0.7899468541145325 0.6087461709976196 0.3536562919616699 185 186 191
1.101392149925232 0.46869251132011414 0.2291887402534485 164 169 173
0.9964177012443542 0.5400130748748779 0.10874700546264648 150 154 153
0.9670513868331909 0.53960120677948 0.08669313788414001 158 162 165
0.8615535497665405 0.6238075494766235 0.2624087631702423 168 169 173
1.0522544384002686 0.5362824201583862 0.16003379225730896 151 156 159
1.0917584896087646 0.5189247131347656 0.18930009007453918 164 171 177
1.0216954946517944 0.5319068431854248 0.1397671103477478 162 167 170
0.8200924396514893 0.5934035778045654 0.298868864774704 162 168 168
0.9223498106002808 0.6053990125656128 0.22785907983779907 168 172 173
0.8596540093421936 0.5798171758651733 0.28675577044487 173 174 179
1.0580558776855469 0.486570805311203 0.148957759141922 162 170 172
1.0161151885986328 0.522182822227478 0.12960907816886902 161 167 167
0.9950618147850037 0.5675034523010254 0.16770592331886292 156 161 164
0.9269037246704102 0.5681767463684082 0.21880188584327698 157 161 164
1.0607820749282837 0.515282154083252 0.17868554592132568 165 170 173
1.1110297441482544 0.5373497009277344 0.21776461601257324 165 173 176
0.9521668553352356 0.5774896144866943 0.1974707990884781 159 163 164
1.1212563514709473 0.4907483756542206 0.21629366278648376 163 171 174
0.7904244661331177 0.5881650447845459 0.3381824791431427 176 179 186
0.7107287645339966 0.6291395425796509 0.3957686126232147 169 173 176
0.8309637904167175 0.6080032587051392 0.3035776615142822 167 173 173
0.9109491109848022 0.6061584949493408 0.21901817619800568 169 173 176
1.046579360961914 0.5499039888381958 0.15060065686702728 161 166 169
1.0545607805252075 0.508870005607605 0.15841379761695862 158 163 166
0.8670729398727417 0.5794647932052612 0.2793191373348236 163 167 170
0.789735734462738 0.5996447801589966 0.3518035113811493 179 179 187
1.0911914110183716 0.47673335671424866 0.17968881130218506 153 159 159
0.9705782532691956 0.5894286632537842 0.17840492725372314 168 172 173
0.9230873584747314 0.5969251394271851 0.2293669432401657 166 170 171
0.7705072164535522 0.6155866384506226 0.34865787625312805 170 176 176
0.8600953221321106 0.6162683963775635 0.265348881483078 166 169 174
1.048417568206787 0.52800452709198 0.16884447634220123 151 156 159
1.060686707496643 0.5200996398925781 0.17976146936416626 161 166 170
0.9212353229522705 0.5773659944534302 0.21860414743423462 166 171 174
1.0383219718933105 0.5360134840011597 0.14104239642620087 162 167 170
0.980441153049469 0.5404026508331299 0.0986461192369461 152 158 158
0.9620583057403564 0.5866833925247192 0.18985389173030853 163 167 168
0.882874608039856 0.5800191164016724 0.2509857416152954 159 164 167
0.994392454624176 0.5783123970031738 0.16985680162906647 160 168 170
1.085373878479004 0.5206857919692993 0.19944849610328674 165 170 176
1.1120021343231201 0.5260368585586548 0.22037440538406372 159 164 168
0.8708381056785583 0.5739628076553345 0.2697209417819977 158 162 163
1.0317351818084717 0.5297055244445801 0.1370130479335785 164 169 172
0.8619507551193237 0.5834019184112549 0.2781428098678589 172 175 180
0.9608374834060669 0.5513286590576172 0.08961129188537598 156 162 162
1.0920398235321045 0.4690916836261749 0.1729086935520172 157 162 165
1.0500824451446533 0.517471194267273 0.15770839154720306 154 159 162
1.0487048625946045 0.5367739200592041 0.1521194875240326 152 157 160
0.9519064426422119 0.5815918445587158 0.19658838212490082 158 162 163
1.112851619720459 0.5417412519454956 0.2101508527994156 165 173 176
0.830898642539978 0.6197260618209839 0.3091515600681305 164 168 171
1.1204599142074585 0.5254631042480469 0.21266451478004456 153 158 162
1.154980182647705 0.47793033719062805 0.23934048414230347 155 160 164
1.0304443836212158 0.5434573888778687 0.1451021283864975 161 166 169
0.9807602763175964 0.5392253398895264 0.09653054177761078 151 157 157
0.7465575933456421 0.6197619438171387 0.38315349817276 181 182 187
0.7510088682174683 0.6203513145446777 0.3699556589126587 176 181 187
0.8415451049804688 0.5927729606628418 0.28497371077537537 176 182 182
0.9958949685096741 0.5263544321060181 0.11795054376125336 156 160 159
0.9225972890853882 0.586851954460144 0.21942643821239471 170 174 177
0.7009473443031311 0.632026195526123 0.39249318838119507 175 180 184
1.1369317770004272 0.4918549358844757 0.24874868988990784 170 175 181
0.8193516731262207 0.6017842292785645 0.3295953571796417 164 169 173
0.959848940372467 0.5495734214782715 0.07707157731056213 157 161 162
0.99151211977005 0.5879502296447754 0.16958099603652954 164 169 172
0.8806712627410889 0.575287938117981 0.2579289376735687 162 166 169
1.0904669761657715 0.4936660826206207 0.18865816295146942 155 160 164
0.8619186878204346 0.6054131984710693 0.2624242603778839 173 174 179
0.9421275854110718 0.5666743516921997 0.20983436703681946 156 160 161
1.1417593955993652 0.4871927797794342 0.2546224296092987 168 173 179
0.781028151512146 0.6284693479537964 0.3581218719482422 173 177 178
0.778771162033081 0.6094183921813965 0.34593862295150757 178 182 185
0.7350685000419617 0.6297799348831177 0.37766939401626587 192 193 197
1.1111074686050415 0.5185818672180176 0.22186776995658875 157 162 166
1.0363428592681885 0.5170133113861084 0.13902267813682556 154 159 162
0.9662178754806519 0.5460265874862671 0.08957476913928986 158 164 164
1.1564996242523193 0.4892139136791229 0.23929399251937866 160 165 169
0.7898584604263306 0.6190736293792725 0.3575078845024109 185 186 191
1.14108407497406 0.4901178181171417 0.23898735642433167 165 170 174
1.0805115699768066 0.5169000625610352 0.19963115453720093 168 173 177
0.9940119981765747 0.5399893522262573 0.10839733481407166 150 154 153
0.751303493976593 0.6192643642425537 0.3680022358894348 177 182 188
0.9029688835144043 0.5902385711669922 0.248009592294693 172 177 180
0.740188717842102 0.6269855499267578 0.38825592398643494 176 175 181
0.8017445206642151 0.6013122797012329 0.3187542259693146 180 181 186
1.0524849891662598 0.5262579917907715 0.15800988674163818 153 158 161
1.1020148992538452 0.4709192216396332 0.22665634751319885 162 170 173
1.1417862176895142 0.4738762080669403 0.257205069065094 166 171 177
0.9515554904937744 0.5560430288314819 0.07887569069862366 157 158 160
0.8522821664810181 0.5819511413574219 0.2897258400917053 171 171 179
0.8133867979049683 0.5977219343185425 0.32892194390296936 168 173 179
1.0322312116622925 0.5591697692871094 0.14839275181293488 165 171 171
0.9663993120193481 0.5296406745910645 0.07714749872684479 160 161 163
0.8392003774642944 0.5884419679641724 0.2999490797519684 180 181 185
0.8555279970169067 0.632642388343811 0.2604709267616272 173 177 178
1.0916330814361572 0.509286642074585 0.18710225820541382 163 170 176
0.9419590830802917 0.5766470432281494 0.20319975912570953 153 157 158
0.9853498935699463 0.5926523208618164 0.17740872502326965 165 169 172
0.8604946136474609 0.5981860160827637 0.26531293988227844 173 174 179
1.0516693592071533 0.49016931653022766 0.11584945023059845 158 163 166
0.6537959575653076 0.6871170997619629 0.29003584384918213 172 171 176
1.1580078601837158 0.4524725377559662 0.028144508600234985 150 151 153
0.9006539583206177 0.585233211517334 0.03972506523132324 155 155 155
0.931183934211731 0.5770286321640015 0.05806225538253784 152 152 154
1.1028416156768799 0.5065521001815796 0.06978815793991089 146 152 152
0.7415928840637207 0.6213068962097168 0.399985671043396 178 179 184
0.6266423463821411 0.656833291053772 0.3182930052280426 167 171 172
0.951768159866333 0.5621967315673828 0.07156676054000854 156 158 157
0.941855788230896 0.5652065277099609 0.06640955805778503 151 151 151
0.704298734664917 0.6272878646850586 0.36918842792510986 172 177 180
1.10111403465271 0.4898594915866852 0.04756632447242737 146 150 153
1.041255235671997 0.4988904893398285 0.10645461082458496 150 156 156
1.0516750812530518 0.5564855337142944 0.1014203131198883 160 165 168
1.0914950370788574 0.4905935227870941 0.0894995629787445 147 156 155
0.6313742995262146 0.6581137180328369 0.3296031951904297 174 173 178
0.931020975112915 0.5934621095657349 0.06869736313819885 160 161 163
0.6602181196212769 0.6653988361358643 0.3547714054584503 168 169 171
1.0009944438934326 0.5386039018630981 0.14939823746681213 158 162 163
0.6484490633010864 0.6601530313491821 0.3018520772457123 172 172 174
1.0848884582519531 0.4876510798931122 0.09957648813724518 149 154 157
0.691987156867981 0.6298072338104248 0.34923824667930603 180 185 188
1.0418081283569336 0.5416357517242432 0.11749686300754547 160 165 168
0.760648250579834 0.6337002515792847 0.40315866470336914 173 177 180
1.0837538242340088 0.4945624768733978 0.07926744222640991 155 160 163
1.0232501029968262 0.5261712074279785 0.12945979833602905 161 166 169
1.150387167930603 0.44885972142219543 0.028710871934890747 149 149 151
0.9300360679626465 0.6040010452270508 0.06780478358268738 160 160 160
0.7003263235092163 0.6340205669403076 0.3885405659675598 176 181 184
0.6514222621917725 0.6592143774032593 0.30887389183044434 170 170 172
0.6717128753662109 0.6801880598068237 0.3415091037750244 173 177 178
1.0409300327301025 0.5086840391159058 0.1080438643693924 147 156 155
0.8998274803161621 0.5842407941818237 0.01773175597190857 158 157 155
1.1643399000167847 0.4396871030330658 0.037729233503341675 157 161 162
1.1524317264556885 0.46763506531715393 0.038689762353897095 144 148 149
0.6604803800582886 0.6721439361572266 0.3590056002140045 168 169 171
1.1089427471160889 0.4766446053981781 0.04129308462142944 153 157 160
0.9958416223526001 0.5489047765731812 0.16760921478271484 154 158 161
0.9220014810562134 0.6018409729003906 0.04254606366157532 157 159 158
0.6782418489456177 0.6599886417388916 0.35531026124954224 187 191 192
1.0603408813476562 0.4840163290500641 0.08979447185993195 159 163 166
1.0416080951690674 0.5375403165817261 0.11875119805335999 158 163 166
1.0008509159088135 0.5150954723358154 0.1391458362340927 162 167 170
0.6508179903030396 0.6670564413070679 0.297445148229599 171 171 173
1.0717170238494873 0.48583653569221497 0.07826931774616241 160 163 168
0.6712502837181091 0.6744717359542847 0.3479146659374237 178 182 183
0.8905052542686462 0.5750753879547119 0.01982828974723816 155 156 151
1.0430059432983398 0.5187331438064575 0.10998843610286713 149 155 155
1.0118999481201172 0.525164008140564 0.1426864117383957 164 169 172
1.0520598888397217 0.48849907517433167 0.1285199522972107 162 166 167
1.1507503986358643 0.47735586762428284 0.03934586048126221 147 151 154
1.1607141494750977 0.4476856291294098 0.03602859377861023 148 152 151
0.6885196566581726 0.6268646717071533 0.3588782548904419 176 184 186
0.7101200819015503 0.6303738355636597 0.36805516481399536 171 175 178
0.6392179131507874 0.6614499092102051 0.3199867010116577 175 174 179
0.9216874837875366 0.599684476852417 0.048800528049468994 157 158 160
0.6439942717552185 0.6589441299438477 0.2990707755088806 174 173 178
0.9951814413070679 0.5593515634536743 0.16972492635250092 152 157 160
0.656530499458313 0.6717731952667236 0.2980307638645172 167 167 169
1.0713016986846924 0.49123677611351013 0.09626089036464691 158 163 166
0.9301509261131287 0.5871968269348145 0.05711132287979126 159 160 162
0.6812831163406372 0.6642731428146362 0.33887481689453125 183 188 191
1.1564381122589111 0.486019104719162 0.03900277614593506 150 154 157
1.149902582168579 0.4478307068347931 0.018610894680023193 148 149 151
0.890133261680603 0.564278244972229 0.010040372610092163 155 156 151
1.162060260772705 0.4547934830188751 0.032911330461502075 148 152 151
1.0590341091156006 0.47917625308036804 0.127803236246109 161 162 164
1.1154230833053589 0.49000057578086853 0.049646079540252686 151 157 157
0.620067834854126 0.6636695861816406 0.3299773633480072 182 183 185
0.6750196218490601 0.6699622869491577 0.3484976887702942 181 187 187
1.041218638420105 0.5616087913513184 0.1540040820837021 164 170 170
1.070029377937317 0.4787314832210541 0.07319456338882446 157 161 164
1.0454087257385254 0.5277566909790039 0.10988713800907135 148 153 156
0.885010302066803 0.564227819442749 0.009295761585235596 154 155 150
1.0356417894363403 0.5330674648284912 0.12673376500606537 161 166 169
1.0130774974822998 0.5375728607177734 0.1490478217601776 164 169 172
1.0821566581726074 0.49050143361091614 0.0881422758102417 155 160 163
0.9365177154541016 0.5663769245147705 0.06787389516830444 149 149 147
0.7612351179122925 0.6315350532531738 0.39926764369010925 172 176 179
1.0921392440795898 0.4865916073322296 0.09855897724628448 148 152 153
0.9936201572418213 0.5396814346313477 0.15043306350708008 156 157 159
1.101924180984497 0.4956927001476288 0.05835336446762085 147 151 152
0.942293643951416 0.5702540874481201 0.05668547749519348 150 150 150
1.044020652770996 0.5285094976425171 0.119452103972435 150 155 158
1.0963549613952637 0.5023424625396729 0.07818678021430969 146 154 156
0.7015904188156128 0.6368823051452637 0.37889009714126587 177 181 184
1.1603422164916992 0.4524955451488495 0.028483837842941284 149 150 152
0.6785864233970642 0.6667203903198242 0.3595300614833832 188 192 193
0.7306476831436157 0.6293359994888306 0.3986637592315674 189 194 197
0.9301854372024536 0.577540397644043 0.06848955154418945 156 156 158
1.0307376384735107 0.529008150100708 0.12724612653255463 162 167 170
0.6243411302566528 0.6580444574356079 0.32858094573020935 181 182 184
1.0454846620559692 0.5369710922241211 0.10942116379737854 153 158 161
1.0475058555603027 0.4884541928768158 0.12785804271697998 160 164 165
0.743788480758667 0.6213284730911255 0.4003048241138458 180 181 186
1.1044232845306396 0.500717282295227 0.05930262804031372 147 151 152
1.0911874771118164 0.49841639399528503 0.07890975475311279 146 154 156
0.6816695928573608 0.6553457975387573 0.3390892446041107 184 188 191
0.6701675057411194 0.6710941791534424 0.35831597447395325 175 176 178
0.9450725317001343 0.5658774375915527 0.0586397647857666 152 152 152
1.0439512729644775 0.5194742679595947 0.11982870101928711 147 152 155
0.6669432520866394 0.6801410913467407 0.34081584215164185 168 172 173
0.6313512325286865 0.6568797826766968 0.318977415561676 171 172 174
1.1623181104660034 0.447841614484787 0.028364866971969604 152 156 157
0.6850730776786804 0.6294906139373779 0.3400427997112274 179 183 186
0.6496216654777527 0.6635541915893555 0.29965904355049133 172 172 174
0.9282832145690918 0.5880200862884521 0.04834631085395813 157 159 158
0.6402801275253296 0.650066614151001 0.30763524770736694 176 174 177
0.690768837928772 0.6268868446350098 0.3592051565647125 178 186 188
0.9915931820869446 0.5586822032928467 0.15967948734760284 156 160 163
0.8879317045211792 0.5750499963760376 0.019454240798950195 151 152 147
0.6586276292800903 0.6729742288589478 0.30049753189086914 166 166 168
1.0627479553222656 0.4797954261302948 0.07421635091304779 156 160 163
0.9193915128707886 0.6018152236938477 0.042166709899902344 158 160 159
1.0455334186553955 0.5463026762008667 0.10895729064941406 161 166 169
0.9301783442497253 0.5807385444641113 0.06472912430763245 157 157 159
1.0016365051269531 0.5284843444824219 0.14746136963367462 159 164 167
1.157787799835205 0.44991859793663025 0.03974595665931702 147 151 150
0.6304184198379517 0.6603211164474487 0.32516178488731384 173 172 177
1.1605632305145264 0.4762924611568451 0.03864726424217224 144 148 149
0.6820415258407593 0.6465314626693726 0.33929961919784546 176 180 183
0.6207294464111328 0.6670327186584473 0.31928688287734985 178 180 179
1.1636123657226562 0.43975284695625305 0.02981257438659668 156 160 161
1.0465657711029053 0.5095388889312744 0.11848047375679016 152 158 158
0.9085028767585754 0.5906714200973511 0.030614137649536133 159 159 159
1.0400720834732056 0.5609266757965088 0.16138955950737 164 170 170
0.9269583821296692 0.5567566156387329 0.2298792600631714 156 160 161
0.6652909517288208 0.6710165739059448 0.34919029474258423 170 174 175
1.0101561546325684 0.519026517868042 0.13937675952911377 163 169 169
0.8836572170257568 0.5692198276519775 0.018266767263412476 152 151 146
1.1643611192703247 0.48995861411094666 0.03844606876373291 146 150 153
1.1677542924880981 0.4295675456523895 0.02757367491722107 156 160 163
0.9015452861785889 0.5847734212875366 0.028961181640625 158 158 156
1.0621339082717896 0.4820607602596283 0.07828736305236816 158 162 165
0.9970553517341614 0.5483126640319824 0.15831656754016876 157 158 160
1.154131531715393 0.45813676714897156 0.038025617599487305 144 148 149
1.000239372253418 0.5173512697219849 0.14319969713687897 159 167 169
0.8947781920433044 0.5688313245773315 0.008935809135437012 157 159 154
0.6594283580780029 0.6637563705444336 0.3098495304584503 164 166 165
1.017844796180725 0.5415871143341064 0.1486443430185318 164 170 170
0.9138944745063782 0.5996075868606567 0.047667860984802246 159 160 162
1.0504732131958008 0.49044498801231384 0.10825763642787933 155 161 161
0.7202281951904297 0.6347109079360962 0.36955001950263977 177 181 182
1.0409801006317139 0.5545107126235962 0.10564081370830536 160 165 168
1.0217067003250122 0.5317699909210205 0.12258346378803253 160 166 166
1.0702049732208252 0.4866831600666046 0.08778096735477448 159 164 167
0.662028431892395 0.6664328575134277 0.3487423062324524 166 170 171
0.6837456226348877 0.6336604356765747 0.3397757411003113 175 179 182
1.0148509740829468 0.5229121446609497 0.1389375776052475 162 168 168
1.0440356731414795 0.4971390664577484 0.11969885230064392 156 162 162
0.6201120018959045 0.6749640703201294 0.3168007433414459 176 180 179
0.7108840346336365 0.6358752250671387 0.37822848558425903 168 173 176
0.9236451387405396 0.5988855361938477 0.05762186646461487 159 160 162
1.0465797185897827 0.4875698387622833 0.1183849573135376 157 162 165
0.9908796548843384 0.5488680601119995 0.14997585117816925 149 153 154
0.7206445932388306 0.6414651870727539 0.3897094428539276 177 182 185
0.6788811683654785 0.6562914848327637 0.33231282234191895 185 189 192
1.126295804977417 0.49976280331611633 0.06033864617347717 149 155 155
0.9308567047119141 0.5880454778671265 0.048720359802246094 157 159 158
0.9141809940338135 0.6051079034805298 0.06781378388404846 161 161 161
0.8891457319259644 0.5800908803939819 0.028841525316238403 151 151 149
1.011522889137268 0.5433084964752197 0.15935513377189636 163 167 168
0.6522289514541626 0.6650229692459106 0.3196154534816742 171 170 175
0.8911968469619751 0.5793048143386841 0.03769797086715698 151 151 151
0.6814876794815063 0.6566135883331299 0.3495416045188904 185 191 191
1.0502831935882568 0.4867909252643585 0.10948514938354492 157 162 165
1.0428321361541748 0.5190103054046631 0.12719932198524475 149 154 158
1.1119248867034912 0.49962112307548523 0.05824989080429077 148 154 154
1.1695911884307861 0.49505195021629333 0.03965988755226135 144 148 151
1.141570806503296 0.4555869996547699 0.039910197257995605 145 146 150
1.120765209197998 0.476761132478714 0.04301142692565918 157 162 165
0.6661169528961182 0.6824380159378052 0.3363458216190338 168 169 171
1.166553020477295 0.4468543231487274 0.01894208788871765 153 157 158
0.6853737831115723 0.6283811330795288 0.3380490839481354 178 182 185
0.6422069072723389 0.6591691970825195 0.31618982553482056 177 176 182
0.990783154964447 0.5528490543365479 0.14889241755008698 153 157 158
1.1350997686386108 0.43715569376945496 0.029370754957199097 148 148 148
0.9203152656555176 0.6047470569610596 0.057898253202438354 158 159 161
1.0614330768585205 0.48855075240135193 0.09823866188526154 160 165 168
0.6913881897926331 0.6320168972015381 0.35320934653282166 180 185 188
0.7288132905960083 0.6362842321395874 0.3887864351272583 184 188 191
0.6802595853805542 0.6611442565917969 0.35768362879753113 188 192 193
0.9013499021530151 0.5759296417236328 0.012738287448883057 158 158 156
0.7142199873924255 0.6401680707931519 0.37878063321113586 171 176 179
1.1415828466415405 0.4497588574886322 0.03739061951637268 150 151 153
1.0401954650878906 0.5291013717651367 0.12862081825733185 154 159 163
0.99166339635849 0.5112639665603638 0.13890330493450165 156 161 164
1.1205077171325684 0.4888856112957001 0.04825127124786377 155 161 161
0.6202363967895508 0.6600669622421265 0.3064659833908081 179 183 182
0.6300912499427795 0.645503044128418 0.3063424229621887 173 172 177
1.114701747894287 0.5098558664321899 0.05978742241859436 147 151 152
1.0005505084991455 0.548951268196106 0.16829362511634827 156 160 163
1.0228803157806396 0.540273904800415 0.11259326338768005 162 168 168
1.1208550930023193 0.519777774810791 0.06996268033981323 147 153 153
0.9419889450073242 0.5580768585205078 0.2183215171098709 160 165 168
0.9024251699447632 0.5842664241790771 0.01810932159423828 159 158 156
1.0352818965911865 0.5608794689178467 0.16069328784942627 166 172 172
1.0248421430587769 0.5373750925064087 0.11631432175636292 160 166 166
0.6418796181678772 0.6615842580795288 0.32893428206443787 177 178 180
0.7527798414230347 0.6295541524887085 0.4018806219100952 184 185 190
0.6838701963424683 0.6339282989501953 0.3480176031589508 173 178 181
1.0472511053085327 0.4979768693447113 0.12958717346191406 156 161 164
1.0306520462036133 0.5473414659500122 0.10896573960781097 159 165 165
0.6305514574050903 0.6511209011077881 0.30832788348197937 171 172 174
0.7602964043617249 0.6263846158981323 0.3970322012901306 173 177 180
0.6796013116836548 0.6463736295700073 0.3305462896823883 186 187 191
1.0104122161865234 0.5386967658996582 0.15076708793640137 164 168 171
1.1286461353302002 0.5238139629364014 0.06956619024276733 147 153 153
0.8819657564163208 0.5754597187042236 0.02948051691055298 147 147 145
0.9318346977233887 0.5777138471603394 0.04978311061859131 151 153 152
0.991576611995697 0.5385110378265381 0.1480293869972229 153 157 156
0.931833028793335 0.555687665939331 0.2285420298576355 158 162 163
0.704002857208252 0.6283793449401855 0.3711497485637665 172 177 180
1.0968743562698364 0.49148884415626526 0.09997779130935669 148 152 153
0.6818684339523315 0.6478650569915771 0.34966468811035156 177 182 185
0.9295079708099365 0.5832117795944214 0.06917372345924377 161 161 163
1.0310606956481934 0.5502378940582275 0.10554201900959015 160 164 167
0.89085853099823 0.5805528163909912 0.039940714836120605 149 151 150
1.0452721118927002 0.5053551197052002 0.12696011364459991 152 157 160
1.1230264902114868 0.4659728705883026 0.04026508331298828 154 159 162
0.7301269173622131 0.6312283277511597 0.39474618434906006 187 192 195
0.6603646278381348 0.6708991527557373 0.3399854898452759 162 166 167
1.0801303386688232 0.48934099078178406 0.08575886487960815 156 161 164
0.6922048926353455 0.628448486328125 0.33904197812080383 179 184 187
0.9215406775474548 0.609835147857666 0.06737354397773743 162 162 162
1.1106534004211426 0.48995354771614075 0.04895281791687012 147 152 155
0.7104170918464661 0.6292780637741089 0.36608585715293884 170 174 177
1.0389304161071777 0.49886754155158997 0.10611671209335327 149 155 155
0.880950927734375 0.579203724861145 0.03620874881744385 148 150 147
1.1222695112228394 0.5087500810623169 0.05872538685798645 147 153 153
0.7181403636932373 0.6424133777618408 0.38339194655418396 174 179 182
1.1219842433929443 0.44835248589515686 0.04026457667350769 159 160 164
0.6542089581489563 0.6741902828216553 0.32829561829566956 171 171 173
1.0170867443084717 0.5531306266784668 0.16969065368175507 164 168 171
0.9133027791976929 0.5987836122512817 0.05611860752105713 159 160 162
0.6261535286903381 0.6499273777008057 0.3055819869041443 168 169 171
0.6401470899581909 0.6592668294906616 0.3244691789150238 175 176 178
1.1522371768951416 0.4478537142276764 0.018950223922729492 149 150 152
1.1369211673736572 0.4555411636829376 0.03923439979553223 148 149 153
0.7238502502441406 0.6380563974380493 0.3761387765407562 180 185 188
1.0706928968429565 0.4886420667171478 0.09958454966545105 158 163 166
0.670590877532959 0.6836521625518799 0.3391392230987549 170 174 175
0.6816888451576233 0.6491519212722778 0.35994336009025574 177 182 185
0.9002651572227478 0.5676281452178955 0.007430613040924072 156 158 153
0.9903680682182312 0.5195157527923584 0.14590762555599213 155 161 161
1.1171178817749023 0.5098795890808105 0.06013861298561096 145 151 151
1.0021052360534668 0.5432156324386597 0.15798631310462952 161 162 164
0.6376115679740906 0.6498831510543823 0.29859670996665955 174 173 178
0.8917193412780762 0.5801162719726562 0.029215604066848755 153 153 151
1.0420331954956055 0.5634371042251587 0.14867569506168365 163 169 169
1.0396939516067505 0.5003472566604614 0.100770503282547 150 156 156
0.650974452495575 0.6696510314941406 0.32793259620666504 172 173 175
0.720995306968689 0.6402349472045898 0.37976542115211487 177 182 185
1.1296398639678955 0.45660510659217834 0.04025620222091675 156 160 163
1.051928997039795 0.4932071268558502 0.12939107418060303 163 167 170
1.1315104961395264 0.4473201334476471 0.03958636522293091 148 149 153
0.9284595251083374 0.5934368371963501 0.06832507252693176 161 162 164
0.7105965614318848 0.6371990442276001 0.38814303278923035 167 172 175
1.0102791786193848 0.5478969812393188 0.16760098934173584 160 164 167
0.9173744916915894 0.6059870719909668 0.05979514122009277 161 161 163
1.078705072402954 0.4907320439815521 0.07997174561023712 158 161 166
1.1239006519317627 0.4997391998767853 0.059990525245666504 148 154 154
1.1113073825836182 0.4766679108142853 0.04163673520088196 155 159 162
0.9919898509979248 0.5295296907424927 0.14814816415309906 156 160 161
0.9020328521728516 0.573410153388977 0.008210539817810059 157 159 154
1.0302250385284424 0.5444345474243164 0.11236794292926788 158 164 164
0.6823666095733643 0.6394753456115723 0.35798612236976624 170 175 178
1.134493350982666 0.43939289450645447 0.03339114785194397 148 149 151
0.6907013058662415 0.6339956521987915 0.34901049733161926 177 182 185
1.1450574398040771 0.46871253848075867 0.03972458839416504 146 150 153
0.9541419744491577 0.5615309476852417 0.09824620187282562 157 161 162
1.100340723991394 0.500271201133728 0.04040434956550598 143 148 151
0.6801279783248901 0.661033034324646 0.34930965304374695 185 191 191
1.0208792686462402 0.5431619882583618 0.10884758830070496 161 167 167
0.9324626922607422 0.5591092109680176 0.2189997285604477 156 160 163
0.9819474816322327 0.5579429864883423 0.1989109367132187 165 170 173
1.1451208591461182 0.4452700912952423 0.02961939573287964 147 147 149
0.6502372026443481 0.6557830572128296 0.31101006269454956 171 171 173
0.9484237432479858 0.5697591304779053 0.04694196581840515 153 153 155
0.6799050569534302 0.6687816381454468 0.33859434723854065 184 189 192
1.0320274829864502 0.5374459028244019 0.11735869944095612 160 166 166
0.9463576078414917 0.5470112562179565 0.22997018694877625 166 172 172
0.9298126697540283 0.5884448289871216 0.05935406684875488 160 160 162
1.0806008577346802 0.4913284480571747 0.09761248528957367 159 164 167
1.122457504272461 0.5138658285140991 0.05933856964111328 145 151 151
1.0438339710235596 0.5335663557052612 0.12032754719257355 151 156 160
0.6215510964393616 0.6566553115844727 0.3089562654495239 180 184 185
1.1007990837097168 0.49102142453193665 0.04965439438819885 145 149 152
1.0340015888214111 0.5615376234054565 0.1529550999403 164 170 170
0.9211975932121277 0.6111007928848267 0.06964796781539917 163 163 163
0.6812992095947266 0.6578333377838135 0.35990527272224426 184 189 192
0.8920592069625854 0.5788623094558716 0.0269622802734375 154 155 150
0.6720278263092041 0.6790261268615723 0.33942097425460815 173 177 178
0.9401571750640869 0.5753047466278076 0.04643005132675171 150 150 152
1.0213112831115723 0.5501418113708496 0.10412497818470001 162 166 167
0.7008264064788818 0.6313810348510742 0.3687168061733246 175 180 183
1.111009120941162 0.5145409107208252 0.06789854168891907 146 152 152
1.003037929534912 0.5397742986679077 0.1518019139766693 163 164 166
0.7530721426010132 0.6284757852554321 0.3999427855014801 183 184 189
0.9415605068206787 0.5508153438568115 0.22859153151512146 164 168 169
1.0511524677276611 0.4876148998737335 0.11904957890510559 158 163 166
0.6418946981430054 0.6603212356567383 0.3182600736618042 177 176 182
1.1226654052734375 0.45653632283210754 0.03924250602722168 156 160 163
0.937448263168335 0.5697500705718994 0.02608513832092285 150 150 152
1.1429988145828247 0.4795996844768524 0.04246893525123596 156 161 164
0.9108991622924805 0.5664758682250977 0.006673544645309448 161 160 158
1.0384106636047363 0.5094470977783203 0.09239530563354492 146 152 152
0.9857380986213684 0.51947021484375 0.14523468911647797 155 159 158
0.6925805807113647 0.629584550857544 0.3794296979904175 182 186 189
0.9701732993125916 0.5674980878829956 0.12940499186515808 162 168 166
0.6022504568099976 0.6771546602249146 0.3097586929798126 163 163 163
1.1316803693771362 0.5037391185760498 0.059526294469833374 151 157 157
0.9396162629127502 0.549130916595459 0.24846524000167847 169 173 174
1.0484628677368164 0.5450167655944824 0.08920426666736603 153 161 163
1.1509168148040771 0.443866103887558 0.059354692697525024 145 151 151
0.7235192060470581 0.6307016611099243 0.33941948413848877 178 184 184
0.9194769859313965 0.5949780941009521 0.019410699605941772 154 154 154
1.1657121181488037 0.4732653796672821 0.05905529856681824 143 149 149
0.6476490497589111 0.630345344543457 0.26408955454826355 163 163 165
1.111473560333252 0.4706818163394928 0.039056599140167236 156 160 163
1.144221305847168 0.498439759016037 0.06876885890960693 157 162 165
0.9256607294082642 0.5691357851028442 0.013424485921859741 156 156 156
0.982029378414154 0.5574996471405029 0.13894353806972504 162 166 169
1.15043306350708 0.4837179481983185 0.06789246201515198 157 162 165
0.6717602014541626 0.6825627088546753 0.3795240819454193 178 182 183
1.11183762550354 0.4380479156970978 0.0280439555644989 159 160 162
0.6508166790008545 0.6361521482467651 0.27512821555137634 164 164 164
0.9406242370605469 0.5513861179351807 0.23725321888923645 170 171 173
0.6857549548149109 0.6365776062011719 0.36858099699020386 175 180 184
