ply
format ascii 1.0
element vertex 690
property float x
property float y
property float z
property uchar red
property uchar green
property uchar blue
end_header
0.5011526942253113 0.15838024020195007 0.26765215396881104 40 48 50
0.4505944550037384 0.19182047247886658 0.32999131083488464 170 175 178
0.44132792949676514 0.20785298943519592 0.3192902207374573 36 46 45
0.46082252264022827 0.2014354169368744 0.29914599657058716 147 152 158
0.480294406414032 0.19790026545524597 0.2897140085697174 155 156 161
0.45356929302215576 0.20032420754432678 0.32817456126213074 65 74 73
0.47120875120162964 0.1917766034603119 0.3095376789569855 159 159 167
0.5006104111671448 0.18816319108009338 0.27446573972702026 38 48 49
0.48198777437210083 0.20022734999656677 0.28854691982269287 187 188 193
0.5012891888618469 0.1649254858493805 0.26941341161727905 38 48 49
0.47373098134994507 0.18899360299110413 0.3099880814552307 172 172 182
0.5002622008323669 0.19516482949256897 0.27888286113739014 75 85 86
0.46476489305496216 0.19712749123573303 0.29991114139556885 155 162 168
0.4705733060836792 0.19703242182731628 0.2896048426628113 102 106 107
0.4500720798969269 0.2037639319896698 0.2681737244129181 107 113 101
0.49072110652923584 0.21409305930137634 0.32885313034057617 161 165 174
0.440701425075531 0.20315322279930115 0.27464306354522705 123 124 116
0.5005210041999817 0.2097383439540863 0.31940677762031555 178 182 191
0.4901253581047058 0.17984476685523987 0.3055623769760132 177 181 190
0.47032439708709717 0.18813350796699524 0.28142768144607544 109 110 112
0.44063758850097656 0.19649067521095276 0.2764394283294678 136 137 131
0.4906505048274994 0.1908375322818756 0.2916856110095978 150 149 155
0.5101758241653442 0.24212881922721863 0.34901949763298035 177 180 185
0.4542478919029236 0.16806992888450623 0.27942904829978943 86 92 90
0.45419278740882874 0.19630900025367737 0.26946938037872314 103 108 101
0.46051913499832153 0.17608729004859924 0.28215861320495605 201 210 217
0.4803149700164795 0.18561312556266785 0.30986133217811584 185 185 197
0.4900582730770111 0.1821087896823883 0.2994564175605774 137 138 133
0.44051769375801086 0.18344548344612122 0.2799186706542969 131 132 126
0.5010930895805359 0.19995424151420593 0.31243056058883667 184 188 197
0.45835214853286743 0.1855877935886383 0.2698054313659668 91 97 97
0.45017966628074646 0.17129215598106384 0.2797953188419342 112 122 113
0.5000436902046204 0.20958098769187927 0.3217756152153015 176 180 189
0.48757675290107727 0.21026769280433655 0.3295999765396118 161 164 171
0.44474920630455017 0.17593178153038025 0.279866486787796 120 126 116
0.4965640604496002 0.1787613332271576 0.2993801236152649 144 143 141
0.4507058560848236 0.18029728531837463 0.27544936537742615 116 127 121
0.46523404121398926 0.19984892010688782 0.2886480987071991 138 149 155
0.44989174604415894 0.19845983386039734 0.2699344754219055 115 123 112
0.5141268372535706 0.2504083812236786 0.3410625755786896 186 187 191
0.48321136832237244 0.17970368266105652 0.3069327473640442 181 185 194
0.4510778784751892 0.19326457381248474 0.2718594968318939 113 120 113
0.49224525690078735 0.21031609177589417 0.3194114863872528 173 180 190
0.4603413939476013 0.18714705109596252 0.2837859094142914 177 186 193
0.4610300362110138 0.20345428586006165 0.28907179832458496 227 233 245
0.49120086431503296 0.18590083718299866 0.3090561032295227 179 185 197
0.48049023747444153 0.1919160783290863 0.2950855493545532 163 161 164
0.49676185846328735 0.19009771943092346 0.3097153902053833 183 187 198
0.4440975487232208 0.2096363604068756 0.2693880796432495 112 120 107
0.48077723383903503 0.18399092555046082 0.2992134094238281 134 134 136
0.49118316173553467 0.19823899865150452 0.3134632706642151 180 184 193
0.5162541270256042 0.2523714601993561 0.3388659656047821 189 188 193
0.46109631657600403 0.1779104769229889 0.2696823179721832 153 157 160
0.44139882922172546 0.1697392761707306 0.28586870431900024 111 114 107
0.4539453387260437 0.1924392282962799 0.289946973323822 96 97 99
0.44120460748672485 0.21581384539604187 0.26841768622398376 113 116 107
0.49112218618392944 0.18788400292396545 0.310169517993927 180 187 197
0.5182176232337952 0.2639053761959076 0.33536216616630554 188 189 193
0.4652674198150635 0.16983595490455627 0.26859545707702637 147 151 154
0.4408648610115051 0.17295590043067932 0.2891833186149597 115 117 112
0.451255738735199 0.18677231669425964 0.28988757729530334 96 101 94
0.4400596618652344 0.22072061896324158 0.2651331126689911 94 95 89
0.4708896279335022 0.15988609194755554 0.2740844488143921 111 116 119
0.4582575559616089 0.20044419169425964 0.2888503968715668 98 102 113
0.5036661624908447 0.22108110785484314 0.3295016586780548 167 170 175
0.5000186562538147 0.17873725295066833 0.3022845387458801 125 121 118
0.4706142544746399 0.16830632090568542 0.27692773938179016 111 115 116
0.490797221660614 0.20883217453956604 0.31922706961631775 177 181 190
0.5006878972053528 0.21797612309455872 0.32908037304878235 164 169 175
0.47055917978286743 0.1777649223804474 0.2785649299621582 114 115 117
0.48020732402801514 0.20067712664604187 0.3297029435634613 157 160 167
0.47045475244522095 0.17139580845832825 0.2616594135761261 111 116 112
0.47052985429763794 0.1825626790523529 0.27940407395362854 112 113 115
0.5036449432373047 0.19086387753486633 0.3094860315322876 179 184 190
0.4811992645263672 0.19726958870887756 0.3156435489654541 175 179 188
0.4789455533027649 0.19116684794425964 0.2799273431301117 162 166 169
0.4695998430252075 0.15987339615821838 0.2738969922065735 111 116 119
0.5008881092071533 0.18949481844902039 0.30913636088371277 181 185 194
0.4802175462245941 0.1877097189426422 0.31097114086151123 180 183 192
0.5112251043319702 0.2287876307964325 0.3305715024471283 176 180 181
0.4705933928489685 0.16061702370643616 0.2678590714931488 115 119 120
0.48104482889175415 0.2064511477947235 0.3190605044364929 170 174 183
0.44730326533317566 0.18109294772148132 0.28964462876319885 106 114 103
0.5100519061088562 0.23879775404930115 0.3341217339038849 175 179 180
0.4611355662345886 0.16948780417442322 0.2778851091861725 231 235 244
0.5062328577041626 0.21060189604759216 0.3189975321292877 171 176 180
0.4703749716281891 0.15995314717292786 0.2691241204738617 112 117 120
0.45027855038642883 0.1785140335559845 0.28780874609947205 112 117 111
0.5111679434776306 0.24635955691337585 0.33933311700820923 180 181 185
0.4507898986339569 0.16856876015663147 0.2849201560020447 114 119 112
0.4504426419734955 0.21151378750801086 0.26485365629196167 107 112 105
0.490619421005249 0.2094881236553192 0.32040584087371826 175 179 188
0.46096324920654297 0.17012354731559753 0.2790275812149048 223 230 238
0.5005344152450562 0.176834374666214 0.2988649606704712 150 145 142
0.4410879611968994 0.21181699633598328 0.27007216215133667 114 117 106
0.460105836391449 0.18710139393806458 0.26736515760421753 98 104 104
0.5117419958114624 0.1902986466884613 0.3094814121723175 180 182 181
0.4892278015613556 0.2009998857975006 0.33917778730392456 150 158 160
0.5200880765914917 0.18393030762672424 0.2988796532154083 170 169 174
0.5210147500038147 0.2857767641544342 0.33312785625457764 185 186 190
0.5504681468009949 0.17105963826179504 0.2657929062843323 167 168 170
0.5504809617996216 0.1669130027294159 0.2688620388507843 167 168 170
0.5102840662002563 0.18894383311271667 0.3093232214450836 179 183 184
0.5002264976501465 0.22962793707847595 0.3363553285598755 158 163 167
0.49933409690856934 0.21932074427604675 0.3503957986831665 168 173 179
0.5236181020736694 0.2924053966999054 0.33890998363494873 186 187 191
0.5805530548095703 0.19504091143608093 0.2803043723106384 177 179 178
0.5400881767272949 0.19283410906791687 0.3122977316379547 174 174 174
0.48577603697776794 0.19053825736045837 0.339647501707077 155 160 164
0.5013675689697266 0.23258915543556213 0.3389972746372223 157 160 165
0.5615967512130737 0.1696954071521759 0.27014654874801636 156 158 155
0.5102914571762085 0.21064189076423645 0.31958743929862976 171 176 179
0.5601915717124939 0.17487940192222595 0.2794625163078308 164 164 166
0.5111211538314819 0.17630282044410706 0.2992388606071472 183 183 185
0.5063345432281494 0.24217423796653748 0.3398328125476837 158 161 166
0.4801395535469055 0.1844160258769989 0.33984264731407166 156 161 165
0.5304967761039734 0.20833256840705872 0.31521186232566833 171 171 173
0.5141783952713013 0.1804250180721283 0.29944270849227905 172 171 176
0.564234733581543 0.1819324791431427 0.2793061435222626 158 158 160
0.5280655026435852 0.32868441939353943 0.3369319438934326 180 181 185
0.5203424692153931 0.19397833943367004 0.30937132239341736 170 169 174
0.5719137191772461 0.19112679362297058 0.2833251953125 165 166 168
0.5636568665504456 0.17184260487556458 0.26890572905540466 156 158 155
0.4907267391681671 0.20389309525489807 0.33944112062454224 150 158 160
0.5205357074737549 0.18925079703330994 0.30596375465393066 172 171 176
0.5702402591705322 0.1895945966243744 0.28323277831077576 162 163 165
0.5602667331695557 0.16968229413032532 0.26995325088500977 156 161 157
0.5505077242851257 0.16939374804496765 0.2761269807815552 164 165 167
0.5107452273368835 0.17953863739967346 0.302608847618103 180 178 183
0.5235341787338257 0.21104905009269714 0.31658312678337097 172 171 176
0.49951016902923584 0.21867117285728455 0.3492284119129181 168 173 179
0.5112624764442444 0.22663477063179016 0.32935088872909546 176 180 183
0.5300607681274414 0.1990801990032196 0.3117992877960205 171 171 173
0.5293018817901611 0.17997530102729797 0.29803529381752014 164 164 164
0.5110207200050354 0.2191561758518219 0.32691216468811035 179 180 184
0.49923887848854065 0.22056791186332703 0.3445144295692444 161 166 170
0.5504781603813171 0.174137145280838 0.2793754041194916 173 176 181
0.5715137720108032 0.17747315764427185 0.26934728026390076 166 168 163
0.5707788467407227 0.18760761618614197 0.2796620726585388 166 166 166
0.5057343244552612 0.2314603626728058 0.3517022132873535 169 174 178
0.5311253666877747 0.18935522437095642 0.3075029253959656 159 160 162
0.5618108510971069 0.1810668408870697 0.2828478217124939 162 160 165
0.5481164455413818 0.1809501349925995 0.2994978725910187 167 167 169
0.5786982774734497 0.19133248925209045 0.2791299819946289 175 177 174
0.4952581822872162 0.20058509707450867 0.34922102093696594 170 174 183
0.5099926590919495 0.24280449748039246 0.3502337336540222 177 180 185
0.5206457376480103 0.20956048369407654 0.3162069022655487 171 170 175
0.5300235748291016 0.19487300515174866 0.30952438712120056 169 169 171
0.5712220072746277 0.16865256428718567 0.2640259265899658 163 163 163
0.5010853409767151 0.21115484833717346 0.3515513241291046 169 174 180
0.5328807234764099 0.17932835221290588 0.29981470108032227 166 166 168
0.49760550260543823 0.22241297364234924 0.3395323157310486 154 159 163
0.5507498383522034 0.1737668216228485 0.2893940806388855 170 170 172
0.5801451206207275 0.18599477410316467 0.26953768730163574 172 172 170
0.5205053091049194 0.19964054226875305 0.3116092085838318 171 170 175
0.5403666496276855 0.1787169873714447 0.30215662717819214 176 176 176
0.5025080442428589 0.22539028525352478 0.3510451912879944 168 173 179
0.4904521703720093 0.1901262104511261 0.34931424260139465 170 174 183
0.49414458870887756 0.21191242337226868 0.33888426423072815 155 160 164
0.5838820338249207 0.1904100477695465 0.2695285379886627 166 166 166
0.5403913259506226 0.18944653868675232 0.3088496923446655 174 174 174
0.5805813074111938 0.16888102889060974 0.26019996404647827 166 166 168
0.4947735071182251 0.19702711701393127 0.35016900300979614 169 173 182
0.5026859045028687 0.22473427653312683 0.3498663604259491 167 172 178
0.5228255987167358 0.2927747070789337 0.342830628156662 188 189 193
0.5807348489761353 0.19437023997306824 0.27909916639328003 176 178 177
0.5008434057235718 0.21868428587913513 0.3494222164154053 166 171 177
0.5419408679008484 0.19090762734413147 0.3090050220489502 175 177 176
0.5812690258026123 0.1790778934955597 0.26537448167800903 164 168 169
0.530442476272583 0.18062856793403625 0.2993769347667694 160 160 160
0.5802975296974182 0.18816211819648743 0.27059972286224365 174 174 172
0.5104700922966003 0.20998278260231018 0.3184029161930084 171 176 179
0.5867443084716797 0.20118489861488342 0.2779201865196228 169 169 169
0.560109555721283 0.17758390307426453 0.2816876769065857 163 162 167
0.540486216545105 0.17600712180137634 0.29992637038230896 178 178 180
0.50897216796875 0.24143949151039124 0.3476037383079529 172 175 180
0.49778372049331665 0.2026365101337433 0.35079094767570496 168 173 179
0.48016372323036194 0.18735119700431824 0.34773048758506775 166 169 176
0.571628749370575 0.1795234978199005 0.2703993618488312 166 168 163
0.510477602481842 0.19793692231178284 0.3126481771469116 179 180 184
0.48972028493881226 0.2122475802898407 0.33349913358688354 155 158 165
0.5751133561134338 0.1816735565662384 0.26934510469436646 170 172 167
0.533653199672699 0.17928984761238098 0.30235132575035095 163 165 164
0.486645370721817 0.19008871912956238 0.3487609326839447 170 173 182
0.5060933828353882 0.2301357090473175 0.34932175278663635 168 173 177
0.5531293749809265 0.20036748051643372 0.3089398145675659 172 171 176
0.4503445327281952 0.16724541783332825 0.33951476216316223 165 172 182
0.44397521018981934 0.19238528609275818 0.3301832377910614 164 169 173
0.5108678936958313 0.15977880358695984 0.26643285155296326 42 52 54
0.4610435962677002 0.1779794991016388 0.34464794397354126 169 173 182
0.5292856693267822 0.1799916923046112 0.27945631742477417 201 204 209
0.44122278690338135 0.18279531598091125 0.3319203853607178 166 169 176
0.5305167436599731 0.17549332976341248 0.28998082876205444 198 197 203
0.45297256112098694 0.17037734389305115 0.3388955295085907 167 174 182
0.5516788959503174 0.17972633242607117 0.2952009439468384 173 173 175
0.5600414276123047 0.18759450316429138 0.2945786118507385 169 169 171
0.515169620513916 0.18963167071342468 0.2790087163448334 39 45 45
0.5140238404273987 0.1711847484111786 0.2693275511264801 34 45 41
0.5513561367988586 0.19956359267234802 0.3099595308303833 170 171 173
0.4700150787830353 0.18597248196601868 0.3462131917476654 136 139 146
0.5110683441162109 0.1916675865650177 0.2794976532459259 34 40 38
0.5601317882537842 0.1945028007030487 0.29908955097198486 172 171 176
0.511219322681427 0.16975924372673035 0.26907750964164734 34 44 43
0.5517832040786743 0.18857434391975403 0.30075758695602417 172 171 176
0.5213767886161804 0.1587183177471161 0.2606014311313629 109 110 104
0.5100898146629333 0.17859336733818054 0.27173396944999695 32 43 39
0.540958821773529 0.17169329524040222 0.28936758637428284 175 174 180
0.5215123891830444 0.17814037203788757 0.2696402370929718 35 47 43
0.44093412160873413 0.17159584164619446 0.33499544858932495 167 170 177
0.5602191686630249 0.19659438729286194 0.30021360516548157 173 172 177
0.5204246044158936 0.18827131390571594 0.279903769493103 116 122 120
0.5519592761993408 0.18792471289634705 0.29959022998809814 172 172 174
0.4594612717628479 0.18013033270835876 0.33897796273231506 167 171 180
0.4623430073261261 0.18066594004631042 0.344925194978714 164 167 174
0.5551373958587646 0.19081875681877136 0.29985976219177246 173 172 177
0.4577866494655609 0.1910182535648346 0.3344551622867584 161 166 170
0.4403892159461975 0.16774532198905945 0.3391631543636322 168 172 181
0.5201913714408875 0.1699369251728058 0.2653184235095978 38 47 46
0.5405519604682922 0.18126949667930603 0.2669236660003662 155 155 157
0.5104572772979736 0.1765795648097992 0.28941696882247925 195 196 201
0.5412204265594482 0.17599180340766907 0.2790851593017578 203 206 213
0.5480412244796753 0.16872438788414001 0.2745870053768158 163 164 166
0.46076422929763794 0.18280264735221863 0.33922985196113586 169 172 179
0.4401116967201233 0.1663813292980194 0.34122902154922485 167 174 182
0.5202125310897827 0.1817498505115509 0.28423941135406494 200 204 207
0.5312878489494324 0.1789768636226654 0.2696988582611084 152 156 159
0.4601612091064453 0.19028571248054504 0.3359244465827942 170 175 179
0.5209813714027405 0.1747274100780487 0.28987303376197815 89 90 95
0.5304257273674011 0.17859390377998352 0.27975910902023315 214 217 222
0.4547656178474426 0.17024555802345276 0.3434818983078003 166 173 181
0.5318598747253418 0.18111416697502136 0.2682505249977112 144 148 151
0.451079785823822 0.16648945212364197 0.34282320737838745 165 172 182
0.4710594117641449 0.18355897068977356 0.33962586522102356 161 162 167
0.514990508556366 0.1902923882007599 0.28019607067108154 55 61 59
0.5492261648178101 0.1689387857913971 0.2696947753429413 167 167 169
0.5102041959762573 0.18218329548835754 0.28647729754447937 202 206 209
0.470111608505249 0.19138279557228088 0.3316739797592163 128 131 136
0.5511783361434937 0.2002195417881012 0.3111383318901062 169 170 172
0.5410677194595337 0.1777578890323639 0.26871103048324585 157 157 159
0.49102693796157837 0.21693912148475647 0.16831515729427338 7 16 11
0.4414595663547516 0.21054020524024963 0.18875372409820557 124 128 127
0.5883708000183105 0.16066184639930725 0.22962121665477753 151 151 153
0.47057417035102844 0.20303061604499817 0.1887405812740326 10 19 16
0.5402361750602722 0.15641608834266663 0.2535586953163147 163 167 166
0.450762540102005 0.21010103821754456 0.19916872680187225 22 25 18
0.5007192492485046 0.22428330779075623 0.14996783435344696 15 26 20
0.5105777382850647 0.2016741931438446 0.24236050248146057 150 155 151
0.4995768666267395 0.22068986296653748 0.16540177166461945 68 78 70
0.4813998341560364 0.21644112467765808 0.15906931459903717 12 22 14
0.5364521741867065 0.18079009652137756 0.25987881422042847 128 125 120
0.5110339522361755 0.19477471709251404 0.24483443796634674 146 150 149
0.4410981237888336 0.20947960019111633 0.1798660308122635 82 88 86
0.5404495000839233 0.17663106322288513 0.2584149241447449 139 138 134
0.47004419565200806 0.2104836404323578 0.17159108817577362 12 22 13
0.511015772819519 0.18362542986869812 0.24782678484916687 141 145 144
0.5852954387664795 0.1591949164867401 0.22946980595588684 152 156 157
0.5414552688598633 0.1691514551639557 0.25571486353874207 158 159 154
0.46136999130249023 0.20947900414466858 0.19937971234321594 15 26 18
0.49754849076271057 0.22109118103981018 0.15856127440929413 11 23 13
0.5304921865463257 0.15825077891349792 0.25567880272865295 140 141 135
0.5117840766906738 0.17792591452598572 0.24877509474754333 135 139 138
0.5011712312698364 0.21916726231575012 0.13668258488178253 16 22 18
0.48137614130973816 0.2142018973827362 0.16918142139911652 11 20 15
0.48027676343917847 0.20943495631217957 0.13501353561878204 15 24 19
0.46134713292121887 0.20927134156227112 0.1889611780643463 8 19 15
0.5305883288383484 0.1497739851474762 0.25061848759651184 151 155 156
0.5407209396362305 0.1801663339138031 0.2592797875404358 127 126 122
0.4908424913883209 0.21831950545310974 0.15994839370250702 7 17 9
0.5114253163337708 0.20491793751716614 0.2392105758190155 156 161 155
0.5008949637413025 0.222474604845047 0.1389419138431549 18 24 20
0.5324868559837341 0.1703055202960968 0.2594049870967865 119 116 111
0.4611845016479492 0.21314868330955505 0.17889872193336487 14 23 20
0.44015511870384216 0.21072301268577576 0.19895772635936737 133 142 137
0.5307524800300598 0.16752466559410095 0.25952649116516113 119 116 111
0.4705793559551239 0.20494696497917175 0.1987321823835373 17 26 21
0.45085349678993225 0.21089568734169006 0.18704645335674286 56 65 62
0.4431488513946533 0.2091086208820343 0.1997271031141281 35 36 31
0.45065367221832275 0.20989838242530823 0.18874849379062653 7 16 13
0.5261532068252563 0.14973989129066467 0.2525002360343933 147 149 148
0.521385908126831 0.15680226683616638 0.25960204005241394 111 112 104
0.4673709571361542 0.20914152264595032 0.1792459636926651 77 79 76
0.4911818504333496 0.2198752462863922 0.14820656180381775 4 14 5
0.4503437578678131 0.21216794848442078 0.17906764149665833 25 36 32
0.5144640207290649 0.2100972831249237 0.23319482803344727 33 34 36
0.5021314024925232 0.22044160962104797 0.16903546452522278 10 21 15
0.5245265364646912 0.1607663333415985 0.2595268487930298 113 113 105
0.5460904240608215 0.1499946415424347 0.24776920676231384 160 164 163
0.4925498962402344 0.2206588089466095 0.14981575310230255 6 16 7
0.5404995679855347 0.15122058987617493 0.2493029087781906 164 168 167
0.5004388689994812 0.2187284529209137 0.16923628747463226 48 57 52
0.4812231957912445 0.21174147725105286 0.13935856521129608 13 23 15
0.4604983329772949 0.2104073464870453 0.18403476476669312 10 21 17
0.444097101688385 0.21112748980522156 0.17992092669010162 14 23 20
0.4705938994884491 0.2084347903728485 0.17836183309555054 82 88 78
0.510457456111908 0.15467295050621033 0.2595376968383789 94 99 95
0.530760645866394 0.14913824200630188 0.24947600066661835 155 159 160
0.4941810071468353 0.22142866253852844 0.13993476331233978 14 24 16
0.5106697082519531 0.16199389100074768 0.2547847330570221 122 124 121
0.4828147292137146 0.21534529328346252 0.14992496371269226 13 23 15
0.44165757298469543 0.20980969071388245 0.18744094669818878 123 127 126
0.490971177816391 0.21700957417488098 0.13916780054569244 9 20 12
0.5108585357666016 0.17160078883171082 0.2508707046508789 132 136 135
0.5348866581916809 0.15054485201835632 0.24985967576503754 158 162 161
0.4509589672088623 0.20937636494636536 0.1978664994239807 23 25 20
0.5072264075279236 0.22720888257026672 0.15991772711277008 12 21 18
0.5101351141929626 0.21888497471809387 0.2194698452949524 50 54 53
0.5867919921875 0.17103078961372375 0.25949230790138245 169 170 172
0.5002034306526184 0.2164328396320343 0.17921823263168335 14 23 18
0.4811755418777466 0.20853915810585022 0.17989984154701233 30 40 32
0.491929292678833 0.21086862683296204 0.19912466406822205 13 22 17
0.5804411768913269 0.1668511927127838 0.25918224453926086 167 166 171
0.511792004108429 0.22056087851524353 0.2194051742553711 73 75 74
0.45002689957618713 0.21444061398506165 0.16918231546878815 12 23 17
0.5601569414138794 0.14687827229499817 0.24907848238945007 103 102 100
0.509894847869873 0.22165539860725403 0.17935511469841003 12 22 14
0.5816968679428101 0.1594979465007782 0.2540276348590851 160 163 170
0.5179570913314819 0.23106053471565247 0.21537819504737854 171 173 172
0.488334596157074 0.2100866734981537 0.18364554643630981 28 38 39
0.4634719491004944 0.2190552055835724 0.13941408693790436 47 52 48
0.4406523108482361 0.20051386952400208 0.149589404463768 19 22 13
0.44816452264785767 0.21331414580345154 0.15977387130260468 14 16 13
0.47019830346107483 0.21177539229393005 0.1490977555513382 12 19 11
0.4601597785949707 0.223423570394516 0.13925805687904358 146 148 147
0.5500798225402832 0.15193244814872742 0.24931739270687103 163 169 169
0.45124998688697815 0.21503689885139465 0.15976782143115997 14 19 15
0.4501999318599701 0.20914754271507263 0.145293191075325 155 155 153
0.5142151713371277 0.22038230299949646 0.2227315902709961 180 179 184
0.5652421712875366 0.1470087468624115 0.23951148986816406 53 57 56
0.5710585117340088 0.16202321648597717 0.2598074674606323 191 194 199
0.5511024594306946 0.14878758788108826 0.248705193400383 171 179 181
0.5693503618240356 0.1509297788143158 0.23676279187202454 45 51 51
0.5106362104415894 0.21020379662513733 0.2297665774822235 118 117 122
0.4402250647544861 0.20269444584846497 0.13931238651275635 15 20 16
0.44544196128845215 0.21269050240516663 0.16894745826721191 21 30 25
0.49215883016586304 0.210719496011734 0.18863652646541595 12 21 20
0.4700440764427185 0.2123970091342926 0.1391362100839615 11 16 12
0.46058064699172974 0.22020593285560608 0.14847108721733093 15 21 17
0.5708972215652466 0.14834365248680115 0.25041183829307556 219 223 224
0.5708123445510864 0.15798279643058777 0.2578115463256836 221 224 233
0.4621182680130005 0.21844467520713806 0.14920413494110107 14 24 16
0.5613203048706055 0.16119995713233948 0.25977787375450134 223 228 234
0.5183651447296143 0.24786409735679626 0.2029304802417755 169 174 170
0.571085512638092 0.14965632557868958 0.23987790942192078 179 181 180
0.46075665950775146 0.21606585383415222 0.15930834412574768 13 23 15
0.4905433654785156 0.20908328890800476 0.18877911567687988 9 19 20
0.44966888427734375 0.21043744683265686 0.13671667873859406 146 150 149
0.4409595727920532 0.20592722296714783 0.16999682784080505 13 18 12
0.47030162811279297 0.21144220232963562 0.169825479388237 9 19 11
0.4733191132545471 0.20990702509880066 0.1387557089328766 28 35 28
0.580451488494873 0.15427526831626892 0.24953004717826843 211 220 227
0.5111100673675537 0.23051205277442932 0.2099478840827942 47 48 50
0.5727107524871826 0.15101918578147888 0.23986303806304932 124 124 122
0.5258209705352783 0.2812458574771881 0.19393815100193024 165 165 165
0.5894654989242554 0.16116759181022644 0.24176743626594543 213 220 228
0.5107595920562744 0.22851750254631042 0.20269595086574554 43 43 41
0.5211516618728638 0.26182815432548523 0.20210078358650208 164 169 165
0.5014548301696777 0.21760079264640808 0.19907830655574799 19 25 23
0.5609447956085205 0.1487983763217926 0.25269562005996704 150 150 148
0.48101407289505005 0.20658352971076965 0.19992202520370483 14 23 18
0.4572291076183319 0.22094085812568665 0.14939048886299133 14 19 15
0.49077948927879333 0.2129218876361847 0.17869634926319122 11 21 20
0.5267573595046997 0.29531022906303406 0.1945202350616455 163 167 166
0.4556414783000946 0.21914657950401306 0.1496652513742447 9 13 12
0.5612205266952515 0.15917840600013733 0.2587803602218628 223 228 234
0.45113322138786316 0.20975038409233093 0.15007035434246063 157 156 161
0.5062957406044006 0.2210187017917633 0.19905546307563782 31 33 30
0.5547084808349609 0.16993817687034607 0.2588428854942322 220 220 222
0.44231390953063965 0.20405229926109314 0.15983597934246063 62 61 56
0.580451250076294 0.15437933802604675 0.2390582263469696 104 101 96
0.47020524740219116 0.21371367573738098 0.15975706279277802 10 21 13
0.5771985650062561 0.15163174271583557 0.2495008111000061 215 224 229
0.5095263719558716 0.22069576382637024 0.1811046004295349 13 23 15
0.5710699558258057 0.1477063000202179 0.24926647543907166 221 221 221
0.5016210675239563 0.21577492356300354 0.18885603547096252 8 18 19
0.4812653064727783 0.20402970910072327 0.18858635425567627 8 18 17
0.46095871925354004 0.2137996256351471 0.16939975321292877 12 21 16
0.4693046510219574 0.209326833486557 0.13341876864433289 43 47 48
0.5512984395027161 0.17673799395561218 0.25999176502227783 173 173 173
0.49032583832740784 0.20921877026557922 0.19924384355545044 11 20 15
0.5568578839302063 0.14939555525779724 0.25326913595199585 182 186 189
0.4508189857006073 0.21197578310966492 0.13968071341514587 143 144 139
0.5585796236991882 0.15915235877037048 0.2583965063095093 226 229 234
0.5876328349113464 0.16051527857780457 0.23762142658233643 226 230 231
0.5195151567459106 0.2520414888858795 0.20696485042572021 163 165 164
0.4842948913574219 0.21028098464012146 0.17993314564228058 37 48 42
0.4569593667984009 0.221528559923172 0.13935212790966034 145 146 141
0.5127838253974915 0.22104957699775696 0.18927554786205292 13 22 21
0.545428454875946 0.2296503484249115 0.17301544547080994 145 146 141
0.5217512249946594 0.23689857125282288 0.19791178405284882 161 161 161
0.47231167554855347 0.16946491599082947 0.25835925340652466 111 120 117
0.47090718150138855 0.17288699746131897 0.25901246070861816 111 117 115
0.5110809206962585 0.2193112075328827 0.18942902982234955 7 16 15
0.5207740664482117 0.24480774998664856 0.19763918220996857 167 167 167
0.44124671816825867 0.20084157586097717 0.24999001622200012 89 90 82
0.4612880349159241 0.18883702158927917 0.25961410999298096 107 108 110
0.5195794105529785 0.25381818413734436 0.19872848689556122 168 168 168
0.49012887477874756 0.20994535088539124 0.20054960250854492 11 20 15
0.44285503029823303 0.19867458939552307 0.24915266036987305 94 95 87
0.5200248956680298 0.2275758683681488 0.19504249095916748 162 164 161
0.4511784613132477 0.20923814177513123 0.2394545078277588 111 117 113
0.5414963364601135 0.23526903986930847 0.17904280126094818 143 143 141
0.4773538112640381 0.15956339240074158 0.25905442237854004 120 125 121
0.4808522164821625 0.21083036065101624 0.2108156979084015 26 32 32
0.4611125588417053 0.19069483876228333 0.2514958083629608 79 81 78
0.521034836769104 0.2262955605983734 0.18927186727523804 149 151 148
0.5153108239173889 0.23759648203849792 0.1983703225851059 77 77 79
0.450044721364975 0.19656607508659363 0.24913281202316284 118 124 114
0.4438035190105438 0.2098674476146698 0.2396683692932129 101 106 100
0.5226355791091919 0.27001991868019104 0.19743233919143677 168 170 169
0.46948787569999695 0.1763152778148651 0.25967520475387573 146 152 148
0.5152827501296997 0.24009796977043152 0.19939427077770233 71 71 71
0.44107502698898315 0.21248546242713928 0.259378045797348 25 24 20
0.5413846969604492 0.2524995505809784 0.17964576184749603 146 146 144
0.5103069543838501 0.21981588006019592 0.19380897283554077 71 78 71
0.4707706570625305 0.18424752354621887 0.25241512060165405 38 42 45
0.45022934675216675 0.2003653347492218 0.24733418226242065 118 124 112
0.49939513206481934 0.22092333436012268 0.21159180998802185 32 38 36
0.5013344287872314 0.20374009013175964 0.22949685156345367 24 26 21
0.5217994451522827 0.25684890151023865 0.19682654738426208 168 166 167
0.501432478427887 0.22112205624580383 0.20887014269828796 21 27 25
0.4949392080307007 0.21147987246513367 0.21714365482330322 27 33 31
0.5302222371101379 0.23593011498451233 0.17881855368614197 148 148 146
0.5128713250160217 0.22877898812294006 0.19988957047462463 47 47 49
0.5221977233886719 0.26875820755958557 0.19924697279930115 162 166 165
0.5003230571746826 0.2196381390094757 0.20601090788841248 17 23 19
0.4806223213672638 0.2080288827419281 0.20251940190792084 15 22 15
0.5263115763664246 0.23409852385520935 0.18980972468852997 150 152 151
0.491248220205307 0.2041776478290558 0.21939736604690552 61 67 63
0.44996702671051025 0.19900861382484436 0.2594505548477173 25 30 24
0.48112615942955017 0.2116568386554718 0.209228515625 35 41 41
0.4600105881690979 0.1959817111492157 0.2493310570716858 93 95 90
0.48909640312194824 0.20079663395881653 0.22254790365695953 17 24 17
0.4522359371185303 0.21065261960029602 0.24217981100082397 91 96 89
0.5091763138771057 0.21018937230110168 0.22955438494682312 53 52 57
0.47158995270729065 0.19961819052696228 0.23969487845897675 136 138 135
0.46029558777809143 0.20126840472221375 0.24734267592430115 101 103 98
0.5307592153549194 0.23979660868644714 0.18596863746643066 152 154 153
0.44413119554519653 0.20869353413581848 0.2588847875595093 23 24 19
0.5250564217567444 0.23483970761299133 0.17992694675922394 142 144 141
0.5327842831611633 0.24086269736289978 0.18441590666770935 152 154 153
0.4702242612838745 0.2011900246143341 0.23926395177841187 138 140 135
0.4803696274757385 0.19346722960472107 0.229546457529068 11 16 9
0.4408807158470154 0.21302393078804016 0.23880574107170105 25 28 21
0.4949553906917572 0.21839222311973572 0.20994478464126587 53 59 59
0.47016099095344543 0.19471648335456848 0.2483057975769043 74 74 76
0.5005088448524475 0.2105959951877594 0.2195788472890854 55 62 55
0.48378702998161316 0.2008887231349945 0.21890473365783691 61 63 60
0.5116096138954163 0.22338137030601501 0.17918042838573456 12 22 14
0.4757406413555145 0.18962422013282776 0.24847003817558289 25 25 27
0.49658647179603577 0.22016111016273499 0.20983821153640747 52 58 58
0.507657527923584 0.22144725918769836 0.21715722978115082 42 47 43
0.4924454987049103 0.20051869750022888 0.22873711585998535 20 25 19
0.4661025404930115 0.19887104630470276 0.23762790858745575 19 24 18
0.4808105230331421 0.199303537607193 0.2187584638595581 59 61 56
0.4709762930870056 0.20020654797554016 0.24362128973007202 139 139 139
0.5185761451721191 0.23048719763755798 0.1784474402666092 17 23 19
0.5410788059234619 0.2368094027042389 0.18181093037128448 143 143 141
0.4585491716861725 0.18881002068519592 0.2592160105705261 40 41 45
0.4405498802661896 0.21123942732810974 0.24176707863807678 70 71 63
0.4601297080516815 0.2048538625240326 0.23862674832344055 114 123 118
0.4908016324043274 0.1974731981754303 0.22901269793510437 17 24 17
0.451354444026947 0.1975134313106537 0.25981560349464417 35 40 34
0.46012333035469055 0.20615658164024353 0.22867712378501892 17 24 16
0.49049487709999084 0.19625094532966614 0.2388608157634735 161 162 164
0.5139219760894775 0.23094460368156433 0.159876748919487 20 20 20
0.48147088289260864 0.18900325894355774 0.24806207418441772 42 44 43
0.44026312232017517 0.2167072594165802 0.21975825726985931 30 32 29
0.5001103281974792 0.1578705608844757 0.258850634098053 107 107 105
0.47058266401290894 0.20851567387580872 0.2184402495622635 27 32 26
0.46148234605789185 0.21456614136695862 0.2087114304304123 15 25 17
0.4801598787307739 0.19047680497169495 0.24766719341278076 36 37 39
0.5204009413719177 0.23377063870429993 0.1698499470949173 41 47 43
0.5006389021873474 0.1611744463443756 0.2572336196899414 85 87 86
0.45036929845809937 0.20990446209907532 0.20210374891757965 24 27 20
0.49944090843200684 0.20128968358039856 0.23103967308998108 19 20 12
0.4659295082092285 0.1993233859539032 0.22923544049263 24 31 24
0.45127350091934204 0.2116083800792694 0.22791898250579834 19 25 15
0.5105600953102112 0.22902700304985046 0.15990890562534332 17 18 20
0.4791751801967621 0.1999931037425995 0.21981331706047058 58 61 54
0.5008766651153564 0.1734803020954132 0.2530425786972046 161 162 164
0.4912571310997009 0.18693748116493225 0.2484510838985443 168 169 164
0.4700417220592499 0.2052508294582367 0.22179950773715973 23 32 27
0.5004332065582275 0.18119493126869202 0.25059986114501953 159 161 158
0.5206807851791382 0.23458173871040344 0.1598723828792572 21 26 19
0.4817081391811371 0.19902488589286804 0.23989613354206085 162 166 169
0.44069597125053406 0.21292683482170105 0.22898733615875244 17 18 12
0.4418448507785797 0.20929881930351257 0.20973560214042664 31 33 28
0.4907481074333191 0.19298765063285828 0.24483293294906616 40 40 42
0.4706575870513916 0.21558168530464172 0.20839440822601318 18 25 18
0.5170391798019409 0.23193898797035217 0.16983041167259216 16 22 20
0.5303496718406677 0.22588089108467102 0.148930162191391 13 22 21
0.4659983515739441 0.20918551087379456 0.21908356249332428 17 24 17
0.48036932945251465 0.20059511065483093 0.23946577310562134 162 166 169
0.5104134678840637 0.22581234574317932 0.16884611546993256 13 22 17
0.4703543186187744 0.1970979869365692 0.22885867953300476 23 28 21
0.4509771466255188 0.2121368944644928 0.21923208236694336 12 22 14
0.5203487873077393 0.22989127039909363 0.15123921632766724 8 13 9
0.5113047957420349 0.21946129202842712 0.13474786281585693 4 15 9
0.5205599665641785 0.2291121780872345 0.14983908832073212 11 17 13
0.4912513196468353 0.17404469847679138 0.25285109877586365 135 136 131
0.5400524735450745 0.23164108395576477 0.16845087707042694 137 138 132
0.50887131690979 0.1785646378993988 0.24957415461540222 139 143 144
0.5106333494186401 0.22432711720466614 0.13981136679649353 7 13 11
0.5304701328277588 0.23133501410484314 0.1589350551366806 60 63 56
0.5038245320320129 0.2002144157886505 0.23882710933685303 40 40 42
0.491242915391922 0.16172537207603455 0.25704672932624817 63 64 59
0.44034650921821594 0.21094170212745667 0.20920877158641815 64 66 61
0.4700435400009155 0.2086491882801056 0.2023089975118637 17 23 19
0.4905858635902405 0.15574905276298523 0.25897911190986633 77 78 73
0.538402795791626 0.22885558009147644 0.15916678309440613 69 70 64
0.46000218391418457 0.2130720317363739 0.21895775198936462 15 21 17
0.5429576635360718 0.2298777997493744 0.1693543642759323 139 140 135
0.500847339630127 0.1987123191356659 0.23862388730049133 30 30 32
0.44962823390960693 0.20904245972633362 0.22949087619781494 19 25 15
0.48089930415153503 0.1823403537273407 0.25021129846572876 33 35 32
0.5303626656532288 0.23499050736427307 0.16937996447086334 153 156 149
0.521082878112793 0.21877869963645935 0.13474231958389282 14 23 18
0.5061614513397217 0.20015451312065125 0.24194180965423584 162 167 163
0.4510743319988251 0.20747879147529602 0.22994697093963623 19 24 17
0.5107935070991516 0.22724607586860657 0.1489412635564804 141 145 148
0.4803491234779358 0.17598006129264832 0.25229018926620483 67 69 64
0.5204391479492188 0.22364261746406555 0.13980579376220703 22 33 25
0.48045435547828674 0.16087594628334045 0.2568354606628418 113 114 108
0.540057361125946 0.23372802138328552 0.15303972363471985 15 20 16
0.45086970925331116 0.21032461524009705 0.20941808819770813 23 28 21
0.4456878900527954 0.2099337875843048 0.21452361345291138 27 32 26
0.5415829420089722 0.2288869321346283 0.1596290022134781 16 17 11
0.47088536620140076 0.21102282404899597 0.2165897637605667 68 73 67
0.48014283180236816 0.15895184874534607 0.2582893371582031 111 112 107
0.5007390379905701 0.19240179657936096 0.24503165483474731 161 163 158
0.46856027841567993 0.20863458514213562 0.20209342241287231 17 23 19
0.4905697703361511 0.18038639426231384 0.250581294298172 167 168 163
0.4612509608268738 0.2122381627559662 0.22072534263134003 18 25 18
0.5381928086280823 0.22963032126426697 0.16055898368358612 76 77 71
0.5006140470504761 0.1805277168750763 0.2494008094072342 156 158 153
0.38087034225463867 0.24893763661384583 0.2580593228340149 161 161 161
0.3809049725532532 0.23817035555839539 0.25485897064208984 163 163 165
0.32091212272644043 0.33250483870506287 0.21469995379447937 146 147 142
0.4387076199054718 0.20998677611351013 0.2105962187051773 152 154 151
0.5105525851249695 0.21633794903755188 0.1289314478635788 25 36 28
0.3721209764480591 0.2343026101589203 0.2594097852706909 152 152 154
0.3757132887840271 0.24099454283714294 0.2593708038330078 157 157 157
0.39022770524024963 0.23974499106407166 0.2491035759449005 154 154 154
0.43572521209716797 0.21161696314811707 0.2098572850227356 150 152 151
0.5203306674957275 0.2156553566455841 0.1289258897304535 20 24 23
0.3915523588657379 0.24148640036582947 0.24911655485630035 155 157 156
0.37027114629745483 0.22599104046821594 0.2598399519920349 153 153 155
0.3804858922958374 0.2514083683490753 0.2591906487941742 162 162 162
0.432941734790802 0.21744003891944885 0.2299945056438446 52 48 36
0.38063356280326843 0.25278982520103455 0.237697035074234 139 140 135
0.38058143854141235 0.23193946480751038 0.2498864233493805 159 161 160
0.3908231556415558 0.2543767988681793 0.25904420018196106 158 159 161
0.37043899297714233 0.2470816671848297 0.23974290490150452 151 152 147
0.38005417585372925 0.2409156858921051 0.24326267838478088 154 155 150
0.3715081214904785 0.2516185939311981 0.2379443496465683 137 138 133
0.3959803879261017 0.24835804104804993 0.25892117619514465 158 162 163
0.3707471489906311 0.22859826683998108 0.24878695607185364 153 155 154
0.39777761697769165 0.23819920420646667 0.25036925077438354 156 158 157
0.37146517634391785 0.2676938474178314 0.23163163661956787 136 136 134
0.4344044029712677 0.21497616171836853 0.21918700635433197 149 154 150
0.37089303135871887 0.24254778027534485 0.24174076318740845 150 152 147
0.38119158148765564 0.24645116925239563 0.23995676636695862 138 139 134
0.3793008327484131 0.23030468821525574 0.24986524879932404 157 159 158
0.37214699387550354 0.27530017495155334 0.23080629110336304 144 144 142
0.35761645436286926 0.3055640161037445 0.21706779301166534 157 161 162
0.36735546588897705 0.31877437233924866 0.22159670293331146 37 35 36
0.36232107877731323 0.33358100056648254 0.2173425555229187 30 28 31
0.4112536609172821 0.22614017128944397 0.2590579390525818 165 171 171
0.3599083423614502 0.3127910792827606 0.21805250644683838 159 160 162
0.3660244047641754 0.30178144574165344 0.22354495525360107 31 29 30
0.3662247061729431 0.3436456024646759 0.21829384565353394 61 59 60
0.4305992126464844 0.2160554826259613 0.24932140111923218 108 109 103
0.36321449279785156 0.29881587624549866 0.22193694114685059 115 115 117
0.41024139523506165 0.2308017909526825 0.251578152179718 165 166 168
0.3584350347518921 0.2870544493198395 0.21964791417121887 157 161 162
0.36848583817481995 0.28037211298942566 0.22813129425048828 35 33 34
0.35565587878227234 0.2963351905345917 0.21643118560314178 157 161 160
0.35939347743988037 0.3303660452365875 0.21568092703819275 163 164 166
0.34782296419143677 0.307757169008255 0.20729419589042664 163 168 162
0.42130047082901 0.23066142201423645 0.24624769389629364 132 133 127
0.40951240062713623 0.2284582555294037 0.25994595885276794 160 164 167
0.35553956031799316 0.34811267256736755 0.21110810339450836 156 160 161
0.43864113092422485 0.20956650376319885 0.2566488981246948 125 124 120
0.43006980419158936 0.22411969304084778 0.23851820826530457 106 109 102
0.35676154494285583 0.32503095269203186 0.21435508131980896 157 161 162
0.4210669696331024 0.2287634313106537 0.24922271072864532 187 187 185
0.4043717086315155 0.237489253282547 0.25973445177078247 156 158 157
0.43333303928375244 0.21854504942893982 0.23834028840065002 98 103 96
0.42886096239089966 0.2199624478816986 0.24998418986797333 157 158 153
0.4005884826183319 0.2466614544391632 0.2597452998161316 150 154 155
0.4304146468639374 0.2249176800251007 0.25925785303115845 127 127 127
0.43505609035491943 0.21949949860572815 0.2591237723827362 129 129 127
0.4103085398674011 0.23443195223808289 0.24840949475765228 173 173 171
0.5009008646011353 0.24316051602363586 0.06937029957771301 88 88 80
0.35824480652809143 0.35379478335380554 0.21245163679122925 146 146 148
0.4299769103527069 0.21977010369300842 0.25290992856025696 114 114 112
0.43383097648620605 0.20917001366615295 0.2492474615573883 106 107 99
0.34627002477645874 0.28488704562187195 0.21036651730537415 159 162 155
0.35171008110046387 0.32693275809288025 0.20841461420059204 162 167 163
0.4201904237270355 0.22389677166938782 0.25922253727912903 158 159 163
0.4009320139884949 0.23750749230384827 0.24950391054153442 151 153 152
0.36277711391448975 0.35950592160224915 0.21408098936080933 31 29 30
0.47062525153160095 0.21221479773521423 0.1125340461730957 17 24 16
0.42082586884498596 0.20891472697257996 0.1693516969680786 140 142 141
0.4395333528518677 0.20000538229942322 0.15896892547607422 52 55 48
0.5014759302139282 0.23333802819252014 0.08636701107025146 158 155 148
0.4175446331501007 0.2336045801639557 0.16753359138965607 143 147 146
0.34527599811553955 0.2287452518939972 0.22971580922603607 152 153 148
0.3351317048072815 0.26101264357566833 0.22564101219177246 148 149 144
0.43036988377571106 0.19747188687324524 0.15985234081745148 64 66 63
0.5027559995651245 0.2558199465274811 0.07021403312683105 161 159 147
0.4972536861896515 0.2219986617565155 0.09014861285686493 32 34 29
0.47007519006729126 0.20453044772148132 0.12849512696266174 8 13 19
0.3406760096549988 0.23786690831184387 0.22932106256484985 149 150 145
0.4903574585914612 0.20564386248588562 0.07959514856338501 14 23 20
0.428270548582077 0.19965478777885437 0.16358335316181183 143 145 144
0.4650367200374603 0.22683200240135193 0.10305388271808624 25 26 21
0.3338262438774109 0.2784724533557892 0.22024005651474 148 147 143
0.49081823229789734 0.21598264575004578 0.09859010577201843 12 21 20
0.34088271856307983 0.2458953559398651 0.2269085943698883 150 151 146
0.4629896581172943 0.21852990984916687 0.10744871199131012 26 27 22
0.4844011962413788 0.20955988764762878 0.08600941300392151 27 35 24
0.41426846385002136 0.21729466319084167 0.16630394756793976 151 155 154
0.3420109450817108 0.2500663697719574 0.220684215426445 150 150 148
0.5003569722175598 0.239980548620224 0.07246655225753784 74 74 64
0.4625946283340454 0.21041223406791687 0.11197350919246674 21 23 18
0.4209941327571869 0.2012995183467865 0.15897946059703827 141 145 144
0.5014864206314087 0.24737665057182312 0.07716706395149231 151 148 139
0.4520730972290039 0.21255949139595032 0.12982898950576782 41 47 47
0.43043071031570435 0.20421883463859558 0.1688726842403412 142 146 145
0.470298171043396 0.22980144619941711 0.10100878775119781 19 21 18
0.34221336245536804 0.24931958317756653 0.2193421721458435 149 150 145
0.482006311416626 0.2063564956188202 0.07983732223510742 51 54 47
0.4603431224822998 0.20945248007774353 0.12874504923820496 153 155 144
0.48102423548698425 0.22037675976753235 0.09723794460296631 86 88 85
0.41220933198928833 0.21352002024650574 0.15912823379039764 146 150 149
0.33403682708740234 0.27769556641578674 0.21884387731552124 148 147 143
0.47095632553100586 0.21497485041618347 0.10989594459533691 19 24 18
0.4312777817249298 0.19968447089195251 0.16402044892311096 146 148 145
0.4914669692516327 0.20990785956382751 0.08336488902568817 14 23 18
0.42408713698387146 0.19973722100257874 0.15985678136348724 145 147 144
0.4519540071487427 0.20716819167137146 0.1199391782283783 16 23 16
0.48071885108947754 0.21937063336372375 0.09932862222194672 87 92 88
0.3516582250595093 0.2390168011188507 0.21923571825027466 159 162 155
0.4906047284603119 0.2130889594554901 0.0890815407037735 18 27 22
0.3587028384208679 0.27322205901145935 0.22152560949325562 158 162 163
0.42851948738098145 0.19871863722801208 0.14831100404262543 44 44 42
0.3618721067905426 0.24781093001365662 0.2297438085079193 155 159 162
0.49920159578323364 0.2257837951183319 0.08896662294864655 146 145 140
0.3541575074195862 0.24253717064857483 0.21910253167152405 163 165 160
0.5003387928009033 0.22283592820167542 0.09207484126091003 154 151 144
0.41577598452568054 0.2077147662639618 0.15961191058158875 147 151 150
0.4601624608039856 0.21186921000480652 0.12959440052509308 144 145 137
0.35712313652038574 0.26192566752433777 0.22279532253742218 159 163 164
0.4509113132953644 0.20935949683189392 0.12737415730953217 16 25 22
0.43226534128189087 0.20503410696983337 0.13903038203716278 15 17 12
0.49855655431747437 0.23166605830192566 0.08293311297893524 45 46 40
0.3584665358066559 0.2517261803150177 0.2258189171552658 155 160 163
0.46004337072372437 0.20647791028022766 0.11970457434654236 16 23 16
0.36784982681274414 0.27256110310554504 0.22900572419166565 36 34 35
0.4973996877670288 0.22731927037239075 0.07900562882423401 15 18 9
0.4805563986301422 0.21816232800483704 0.08915017545223236 47 48 40
0.35826393961906433 0.2418060600757599 0.22853043675422668 151 155 156
0.4194287061691284 0.2097669541835785 0.1673896610736847 141 145 144
0.3705170750617981 0.30466166138648987 0.22541986405849457 135 135 135
0.4300394356250763 0.1987335979938507 0.1485319286584854 37 39 36
0.4428863227367401 0.20655295252799988 0.1287386268377304 12 17 10
0.4956149756908417 0.21820029616355896 0.07880176603794098 22 27 21
0.3548452854156494 0.2794923484325409 0.2170480489730835 163 167 166
0.48043176531791687 0.22084853053092957 0.0898730605840683 71 72 66
0.3538174629211426 0.23141536116600037 0.22921256721019745 151 153 148
0.35110342502593994 0.2297886312007904 0.22902348637580872 158 159 153
0.35441166162490845 0.25049397349357605 0.21949179470539093 164 166 163
0.37030118703842163 0.2922574579715729 0.22692492604255676 103 101 102
0.367210328578949 0.2650708854198456 0.22983995079994202 33 33 33
0.4713456630706787 0.2075493037700653 0.11934241652488708 10 17 9
0.35571789741516113 0.2621939480304718 0.21955373883247375 163 167 166
0.3700804114341736 0.28038784861564636 0.2283630669116974 57 55 56
0.3626600205898285 0.2532651126384735 0.22917135059833527 159 163 166
0.4992996156215668 0.23387017846107483 0.07849293947219849 53 53 43
0.4315069615840912 0.2004236876964569 0.14826016128063202 28 30 27
0.3647303283214569 0.22925028204917908 0.24921530485153198 154 159 155
0.47721609473228455 0.22260800004005432 0.08871401846408844 74 71 62
0.347042441368103 0.22854992747306824 0.25216203927993774 78 78 76
0.48810774087905884 0.21003124117851257 0.12602196633815765 6 18 16
0.3684682250022888 0.2515886127948761 0.23750251531600952 155 154 150
0.3744392395019531 0.2831364572048187 0.2301889955997467 136 136 134
0.4789145588874817 0.21814611554145813 0.08891154825687408 40 40 32
0.35132282972335815 0.22485002875328064 0.23944923281669617 158 158 158
0.3513825535774231 0.2009246051311493 0.25919175148010254 154 158 157
