ply
format ascii 1.0
element vertex 184
property float x
property float y
property float z
property uchar red
property uchar green
property uchar blue
end_header
0.5600917339324951 -0.00041550397872924805 0.47937190532684326 21 27 27
0.5551890730857849 -0.0003688037395477295 0.48524874448776245 17 28 30
0.5580511689186096 -0.0015430152416229248 0.47998979687690735 18 26 28
0.5698308348655701 -0.010374397039413452 0.48744332790374756 11 23 21
0.5606743693351746 -0.006250560283660889 0.4858488440513611 72 79 71
0.5812670588493347 -0.002795696258544922 0.4799724817276001 66 72 70
0.5715665221214294 -0.010977089405059814 0.4877642095088959 13 25 25
0.5706872344017029 -0.009908854961395264 0.48651373386383057 14 26 24
0.5815401077270508 -0.01642701029777527 0.48940128087997437 13 23 14
0.5700548887252808 -0.0010485351085662842 0.4790348708629608 12 22 24
0.567521870136261 0.019835591316223145 0.4900776743888855 193 190 183
0.5672326683998108 0.008381813764572144 0.4698273539543152 42 46 49
0.5721925497055054 0.00010344386100769043 0.47839808464050293 17 27 29
0.565641462802887 0.01207655668258667 0.4698602557182312 57 58 63
0.5829959511756897 0.0012428462505340576 0.47707399725914 20 29 24
0.5626998543739319 0.00961083173751831 0.48794758319854736 129 136 128
0.5603340864181519 0.018816977739334106 0.4883829951286316 43 43 41
0.5659041404724121 0.020629465579986572 0.486250102519989 28 29 24
0.5815306901931763 0.002273857593536377 0.4695606827735901 16 25 22
0.559573769569397 0.0007871687412261963 0.47938257455825806 22 28 28
0.5596333742141724 0.006448805332183838 0.4869406819343567 21 27 23
0.5701797008514404 0.003938168287277222 0.4687831401824951 11 21 22
0.5649216175079346 0.014280140399932861 0.47947436571121216 14 24 15
0.5598111748695374 0.020031064748764038 0.4883938431739807 33 35 34
0.5602505207061768 0.002629786729812622 0.479707807302475 18 24 24
0.5825230479240417 0.003125816583633423 0.45995262265205383 15 26 22
0.5721773505210876 0.0023187994956970215 0.4593183100223541 14 26 22
0.5628430247306824 0.014028549194335938 0.4598831236362457 172 170 173
0.5619874596595764 0.008987069129943848 0.45930415391921997 124 123 121
0.5903167128562927 0.0019277334213256836 0.47736304998397827 14 24 16
0.5929081439971924 -0.0014867782592773438 0.519460141658783 20 26 16
0.6134054064750671 -0.0015034377574920654 0.4925098121166229 85 88 79
0.5635587573051453 -0.060053080320358276 0.5239300727844238 76 78 77
0.6095449924468994 -0.0013917982578277588 0.4910915195941925 87 90 81
0.5589414834976196 -0.06237274408340454 0.5225603580474854 75 76 68
0.5585286021232605 -0.05874934792518616 0.5201310515403748 77 79 74
0.6019388437271118 -0.0010805726051330566 0.5187493562698364 19 26 18
0.5643637776374817 -0.05015283823013306 0.5219300985336304 52 55 60
0.5641054511070251 -0.046561628580093384 0.5209761261940002 49 52 57
0.6345335245132446 -0.013341277837753296 0.5011128187179565 81 84 75
0.5930376648902893 -0.0002370774745941162 0.4848831593990326 84 86 81
0.5443981885910034 -0.07897555828094482 0.5204377174377441 69 75 63
0.54380202293396 -0.0803191065788269 0.5205070376396179 68 74 62
0.546289324760437 -0.09088584780693054 0.5240309238433838 68 76 63
0.5676493644714355 -0.030601710081100464 0.4594228267669678 31 36 30
0.5694614052772522 -0.0265180766582489 0.4592122435569763 28 35 28
0.5639746189117432 -0.0015100538730621338 0.4594324827194214 54 57 50
0.5733540654182434 -0.0218755304813385 0.4595734775066376 30 32 27
0.5706402063369751 -0.005117624998092651 0.4596039056777954 73 76 69
0.580140233039856 -0.022327512502670288 0.4589969515800476 32 35 28
0.5596809983253479 -0.022160053253173828 0.48857566714286804 46 50 49
0.5581504702568054 -0.030396103858947754 0.47866949439048767 45 57 55
0.5705831050872803 -0.009877830743789673 0.4633557200431824 61 62 54
0.5419931411743164 -0.08528140187263489 0.509756326675415 74 77 68
0.5382940173149109 -0.08024528622627258 0.5154393911361694 69 75 63
0.5697259902954102 -0.007067471742630005 0.47371429204940796 95 95 93
0.5571544170379639 -0.04003819823265076 0.47895097732543945 36 40 39
0.5391718149185181 -0.07044568657875061 0.513507604598999 70 76 64
0.5447295904159546 -0.06071072816848755 0.509377121925354 75 76 70
0.5715110301971436 -0.020315468311309814 0.46719515323638916 69 70 65
0.564841628074646 -0.01569223403930664 0.47936582565307617 11 11 13
0.5587653517723083 -0.05018353462219238 0.47316858172416687 82 83 77
0.5397603511810303 -0.069119393825531 0.5134391784667969 71 77 65
0.540230929851532 -0.0771627128124237 0.5058109164237976 72 78 66
0.5703700184822083 -0.01951134204864502 0.46947625279426575 81 83 78
0.5624691843986511 -0.02103877067565918 0.47964155673980713 73 74 68
0.5376276969909668 -0.08024895191192627 0.509635865688324 70 76 66
0.6325188875198364 -0.010022848844528198 0.5407601594924927 19 26 19
0.5604372024536133 -0.020829379558563232 0.48995423316955566 37 43 41
0.5831767916679382 -0.008384615182876587 0.46157264709472656 73 78 71
0.558580756187439 -0.05064430832862854 0.48876598477363586 52 56 55
0.5424418449401855 -0.08300706744194031 0.5191835165023804 69 75 63
0.5651575922966003 -0.01019144058227539 0.4894055724143982 33 38 32
0.5800309181213379 -0.011727482080459595 0.4626297354698181 76 79 72
0.5398533940315247 -0.06425586342811584 0.5095957517623901 73 76 67
0.5610532164573669 -0.05189743638038635 0.4700344204902649 81 84 75
0.5692879557609558 -0.000883251428604126 0.4889255166053772 17 22 16
0.5466339588165283 -0.07002457976341248 0.5192554593086243 69 75 63
0.5596973299980164 -0.04084247350692749 0.48987331986427307 34 37 30
0.583365261554718 -0.020353078842163086 0.46400412917137146 23 24 16
0.5349995493888855 -0.07128587365150452 0.509252667427063 72 78 66
0.5595036745071411 -0.027721911668777466 0.4799862504005432 38 48 47
0.548417866230011 -0.06600433588027954 0.5190480947494507 70 76 66
0.55872642993927 -0.031726330518722534 0.48892080783843994 46 52 52
0.5598476529121399 -0.0006589889526367188 0.4633714556694031 99 100 94
0.5604180097579956 -0.04117864370346069 0.46764644980430603 91 89 90
0.5869410634040833 -0.0007677376270294189 0.47993746399879456 84 87 80
0.6485776901245117 -0.012175887823104858 0.5479339361190796 21 23 20
0.5603203177452087 -0.030639052391052246 0.46969321370124817 60 59 64
0.5489433407783508 -0.05978098511695862 0.513642430305481 75 74 70
0.5723416209220886 -0.011211901903152466 0.48394739627838135 18 18 16
0.6233604550361633 -0.007447570562362671 0.5363513231277466 15 22 15
0.5701985955238342 -0.001603633165359497 0.4852668046951294 15 20 13
0.5608826279640198 -0.05189836025238037 0.46854907274246216 85 88 79
0.6302507519721985 -0.009214311838150024 0.5351079106330872 18 25 18
0.547259509563446 -0.05891701579093933 0.5099865794181824 78 76 77
0.5649689435958862 -0.0015046000480651855 0.4680927097797394 102 105 98
0.559393048286438 -0.040369510650634766 0.4699588418006897 5 5 7
0.5597241520881653 -0.031982600688934326 0.46976250410079956 51 50 56
0.5796651244163513 -0.005371689796447754 0.47972342371940613 20 22 17
0.5712390542030334 -0.012561619281768799 0.47961923480033875 20 20 22
0.5646817088127136 -0.02469080686569214 0.46998336911201477 27 28 23
0.6323367357254028 -0.010023832321166992 0.5391738414764404 20 27 20
0.6502156257629395 -0.013020426034927368 0.54726243019104 23 25 22
0.5806430578231812 -0.0005438625812530518 0.48470836877822876 17 22 16
0.5668451189994812 -0.012430548667907715 0.4696156084537506 149 150 144
0.5601202845573425 -0.035718828439712524 0.5167654752731323 18 20 19
0.5654245018959045 -0.007371455430984497 0.5095412731170654 7 12 6
0.6157757043838501 -0.005744248628616333 0.5298544764518738 17 24 16
0.5594873428344727 -0.042705923318862915 0.5097941160202026 20 26 22
0.5616869330406189 -0.04001334309577942 0.5184282660484314 18 20 19
0.5584667921066284 -0.030125737190246582 0.5092468857765198 6 12 8
0.5621337294578552 -0.05062481760978699 0.519711971282959 56 60 63
0.5596628785133362 -0.017186611890792847 0.5122061967849731 21 26 19
0.5600270628929138 -0.02270081639289856 0.5081582069396973 13 20 12
0.5579065084457397 -0.021144837141036987 0.5124103426933289 15 20 13
0.5515756607055664 -0.05662927031517029 0.5098140239715576 96 94 97
0.5642505288124084 -0.010017156600952148 0.5096777677536011 5 10 3
0.6058615446090698 -0.0025405585765838623 0.527930498123169 21 28 21
0.5600835084915161 -0.04136240482330322 0.5097248554229736 27 33 29
0.5591314435005188 -0.030122101306915283 0.5150353908538818 8 10 7
0.560229480266571 -0.03171810507774353 0.5020123720169067 17 19 16
0.5689291954040527 -0.0041290223598480225 0.5129741430282593 10 15 9
0.6145068407058716 -0.004968047142028809 0.532091498374939 18 25 18
0.5598230957984924 -0.04270407557487488 0.5127183198928833 62 69 62
0.5593892931938171 -0.020600885152816772 0.5087839365005493 12 19 11
0.5595611333847046 -0.056042104959487915 0.5185177326202393 76 78 77
0.5625901818275452 -0.010589599609375 0.5118659734725952 7 12 5
0.5604418516159058 -0.05063408613204956 0.5049757957458496 27 29 26
0.5599762797355652 -0.019278019666671753 0.5087157487869263 15 20 13
0.5712727904319763 -0.0029276907444000244 0.4998443126678467 20 25 18
0.550359845161438 -0.06554031372070312 0.5197448134422302 70 76 66
0.5597650408744812 -0.05063781142234802 0.4990813434123993 19 22 15
0.5611064434051514 -0.01059773564338684 0.4989430904388428 16 23 16
0.5829184055328369 -0.0018821954727172852 0.5098297595977783 23 26 17
0.5602097511291504 -0.0200536847114563 0.49936121702194214 12 17 11
0.5755410194396973 -0.0009663701057434082 0.5149730443954468 29 34 27
0.5598954558372498 -0.03171992301940918 0.4991031289100647 14 16 13
0.5674377083778381 -0.004137217998504639 0.4999837279319763 23 26 19
0.5598656535148621 -0.04084154963493347 0.49133920669555664 25 27 22
0.5894308090209961 -0.001363903284072876 0.5194177627563477 19 24 17
0.5613101124763489 -0.05016958713531494 0.49533289670944214 5 10 6
0.5599697232246399 -0.018731921911239624 0.49207594990730286 32 41 36
0.5756958723068237 -0.003024280071258545 0.5099661350250244 24 27 20
0.5505621433258057 -0.06017819046974182 0.5004600286483765 73 79 77
0.5596639513969421 -0.024813145399093628 0.498842716217041 7 9 4
0.5604885816574097 -0.030383288860321045 0.49903419613838196 11 13 8
0.560707151889801 -0.04083693027496338 0.4986686110496521 20 25 21
0.599044680595398 -0.0009485483169555664 0.5247253775596619 20 25 18
0.5799087882041931 0.0009228289127349854 0.5023784637451172 18 24 14
0.5872581005096436 0.001442253589630127 0.5192690491676331 22 27 20
0.5795717835426331 0.000292360782623291 0.5163494348526001 27 34 26
0.587494432926178 0.0007387995719909668 0.5096560716629028 21 26 19
0.579727053642273 0.013723790645599365 0.49385005235671997 16 19 12
0.5769023299217224 0.002329617738723755 0.49948111176490784 18 24 14
0.5846813917160034 0.008274078369140625 0.49978819489479065 17 22 16
0.587141752243042 0.01029813289642334 0.498885840177536 20 22 17
0.581579864025116 0.01236569881439209 0.4864834249019623 89 91 80
0.5873103737831116 0.009569317102432251 0.4878188371658325 87 89 78
0.5693220496177673 0.004422962665557861 0.468391478061676 74 77 68
0.5798457264900208 0.004205465316772461 0.4735395610332489 73 76 69
0.5672675967216492 0.011811375617980957 0.4647611677646637 68 75 68
0.5721628665924072 0.009119391441345215 0.4891960918903351 16 22 12
0.576534628868103 0.015074580907821655 0.4895496368408203 22 23 17
0.5894966125488281 0.0012323260307312012 0.47899767756462097 74 77 70
0.5596275925636292 0.005979955196380615 0.46329987049102783 89 90 84
0.5596347451210022 0.013866454362869263 0.4603141248226166 69 76 69
0.5698779821395874 0.00044649839401245117 0.4888569116592407 17 24 16
0.5745154619216919 0.00836169719696045 0.4693972170352936 69 74 67
0.5712769031524658 0.01308375597000122 0.4658969044685364 68 75 68
0.561465322971344 0.014478057622909546 0.4594581127166748 70 77 70
0.5603578090667725 0.0019693076610565186 0.45750725269317627 77 80 73
0.5594719648361206 0.013865560293197632 0.4588964879512787 70 77 70
0.5560084581375122 0.009316086769104004 0.4599916934967041 72 73 65
0.6010419726371765 0.0009559988975524902 0.48752209544181824 81 84 75
0.591619074344635 0.0018721222877502441 0.4796173572540283 71 76 69
0.5960034132003784 0.005284100770950317 0.48910266160964966 81 83 72
0.5996613502502441 0.005228221416473389 0.49045899510383606 85 87 74
0.6011254787445068 0.0038526952266693115 0.5086429119110107 22 24 21
0.6131748557090759 3.8236379623413086e-05 0.517170786857605 21 23 18
0.6004144549369812 0.0010816454887390137 0.5133141279220581 21 26 20
0.5907020568847656 0.010261684656143188 0.5002763867378235 20 21 16
0.591575562953949 0.001988142728805542 0.5095836520195007 15 20 14
0.5900364518165588 9.834766387939453e-07 0.5193473100662231 21 26 19
